174 179 171 168 175 176 187 176 181 182 180 182 197 193 199 197 197 199 207 206 203 194 190 191 191 189 181 176 178 190 194 196 198 191 192 193 193 191 184 190 187 184 186 182 178 169 177 165 152 157 149 142 132 141 144 142 136 121 125 112 114 96 98 92 86 77 80 74 72 70 72 69 60 61 49 46 47 33 22 19 15 18 15 11 8 10 8 11 14 21 30 34 36 37 42 49 58 65 64 61 56 64 75 75 80 82 85 84 88 87 91 86 83 82 80 81 73 70 71 69 71 73 69 67 69 72 74 74 74 74 75 76 77 79 80 80 81 75 77 74 76 76 78 85 82 82 85 91 88 86 79 77 78 76 73 73 76 80 81 79 78 77 79 81 74 73 78 81 79 78 81 83 87 87 88 93 95 106 110 113 114 113 108 112 119 124 132 135 152 149 144 159 180 160 176 201 204 188 198 196 196 192 185 187 186 190 186 195 203 210 218 212 222 227 230 246 254 255 254 254 254 255 255 255 255 249 239 242 246 243 250 245 240 244 242 247 229 233 235 236 211 211 210 195 184 197 187 195 194 194 190 185 177 176 188 192
170 172 173 166 170 180 180 189 175 183 180 180 185 191 194 195 199 200 206 207 208 201 193 186 194 185 179 179 184 190 196 199 198 199 200 200 197 195 180 183 185 182 185 189 187 169 172 161 158 157 151 147 136 141 141 141 138 122 119 118 109 98 97 96 88 76 74 76 75 75 70 66 59 61 46 45 45 32 21 18 16 18 16 12 7 7 7 10 14 21 28 36 34 38 42 50 56 69 61 57 59 66 72 78 82 82 87 85 86 88 90 94 86 82 78 78 76 71 68 67 67 71 70 68 66 68 75 73 71 73 75 79 78 74 77 80 82 77 72 71 75 74 76 77 79 82 84 89 90 85 87 84 84 82 80 80 77 78 79 79 82 81 83 78 79 75 75 80 78 79 83 83 83 81 87 96 102 105 113 117 120 112 113 115 119 126 126 134 151 154 143 151 178 169 163 192 198 192 199 207 194 191 182 191 189 191 188 195 205 208 218 217 220 223 223 233 247 255 254 255 255 254 253 254 254 253 239 243 244 230 235 242 240 240 237 235 233 223 237 232 230 210 215 212 211 200 193 192 192 203 205 197 190 192 191 195
177 167 170 171 172 177 188 191 185 185 180 183 185 188 193 198 194 198 203 205 207 204 194 186 193 187 177 185 185 187 193 196 200 205 202 204 205 202 191 181 191 179 187 188 180 175 168 157 152 159 148 146 133 138 140 134 133 129 119 125 110 103 96 94 92 82 73 73 77 80 69 63 61 64 47 47 43 31 21 22 19 18 20 15 10 8 6 9 18 22 29 30 31 35 43 52 54 69 62 59 67 64 72 81 86 86 91 88 87 86 88 94 92 86 83 77 74 70 69 67 66 66 67 67 64 65 70 74 72 75 76 76 76 75 77 80 81 79 71 71 73 74 75 76 75 77 85 83 87 85 85 84 80 84 84 82 84 87 87 86 85 82 83 89 86 85 86 85 81 82 84 85 87 87 93 99 109 108 116 115 118 120 122 120 118 129 127 132 149 153 142 143 157 183 165 168 198 188 175 197 207 194 182 185 200 197 194 190 203 208 213 217 225 223 224 239 237 255 255 254 255 255 254 254 254 254 250 242 245 242 235 239 244 252 246 238 243 227 228 233 227 217 208 203 213 205 206 187 193 204 208 202 196 189 198 195
185 173 164 169 168 166 187 192 198 190 183 188 194 190 193 196 196 201 203 204 203 200 205 192 191 190 190 185 183 187 200 197 193 196 200 202 204 203 199 198 177 184 183 189 185 176 166 162 143 153 152 138 133 135 139 133 130 128 118 121 114 103 103 92 87 93 84 73 79 78 69 61 60 61 54 44 45 33 25 22 20 19 20 18 13 8 6 10 20 21 30 29 27 34 39 50 56 67 65 63 69 65 74 75 83 86 86 86 84 87 86 86 91 90 83 88 76 66 70 62 68 66 64 66 67 63 67 73 73 79 80 77 74 75 81 83 82 77 76 74 73 72 74 70 73 75 81 84 84 83 84 89 87 86 90 90 89 87 86 90 88 85 82 87 84 82 85 87 85 86 87 89 92 88 96 102 107 111 111 114 117 121 123 122 125 135 128 136 141 148 152 144 152 167 173 161 185 198 174 177 184 203 195 192 194 191 203 205 210 210 217 218 222 221 228 240 237 252 253 253 255 247 250 253 252 255 254 255 254 249 245 238 232 246 243 236 241 241 237 241 234 224 222 228 205 207 210 209 191 209 207 213 205 201 202 204
176 181 166 166 166 166 178 188 201 192 182 187 197 191 189 198 197 200 208 204 209 198 205 210 197 192 194 198 202 197 198 204 202 202 209 208 206 208 193 194 193 177 184 185 183 173 161 168 149 146 146 142 129 130 140 138 127 130 121 112 115 107 104 99 100 85 90 87 82 81 73 65 62 57 59 47 45 43 29 25 21 19 18 18 15 12 10 11 20 20 29 31 27 30 39 49 59 61 63 66 73 70 74 75 77 82 86 86 84 83 88 86 88 86 84 85 79 73 69 65 59 66 63 66 66 62 67 71 75 76 78 81 79 81 86 88 84 78 78 75 78 72 67 70 71 74 80 83 86 87 87 86 88 92 88 90 89 90 88 90 92 85 87 85 87 85 87 91 92 87 86 90 94 92 97 101 106 113 116 121 119 121 127 124 129 133 129 138 138 143 141 142 146 153 174 164 161 191 184 177 178 183 193 197 200 199 202 212 208 201 221 219 224 225 222 238 233 246 253 242 245 250 243 245 243 250 254 254 253 255 247 242 234 239 247 242 243 241 244 240 245 234 222 215 232 191 217 198 208 200 210 210 207 197 202 199
183 180 176 169 165 167 167 177 195 202 195 186 191 188 183 193 199 201 206 206 208 203 203 215 212 202 191 198 202 200 194 206 209 203 206 201 201 203 206 197 196 184 184 192 190 174 165 162 156 142 144 143 133 126 132 137 133 129 128 109 115 106 108 104 103 101 91 87 87 83 77 67 63 58 57 52 43 45 37 32 21 20 20 20 17 16 11 12 18 17 27 28 28 32 36 52 59 60 57 65 74 72 74 71 78 82 85 82 85 83 85 87 90 90 86 83 87 77 72 69 67 62 61 60 65 63 65 73 75 77 78 81 80 83 83 85 82 77 76 79 75 77 76 75 74 74 81 83 91 89 88 87 90 93 93 93 92 87 92 92 95 95 91 87 90 89 90 92 95 91 89 90 92 95 96 101 111 114 116 120 120 121 125 122 128 128 130 128 130 135 140 140 143 142 162 164 154 170 185 184 184 176 193 206 200 204 205 217 214 209 210 221 231 229 227 244 241 247 255 252 253 251 248 242 234 247 252 255 253 254 254 250 237 239 244 246 245 248 255 250 247 248 242 230 224 214 206 211 201 207 196 207 206 203 204 207
170 176 177 175 170 171 169 173 182 197 206 198 191 195 194 188 194 196 203 199 200 206 202 212 209 211 203 201 205 206 201 207 210 200 203 203 200 202 212 215 208 203 181 184 185 183 172 160 160 139 139 138 123 132 130 134 139 129 133 110 115 118 108 104 104 106 96 91 91 89 75 67 61 59 60 54 42 49 41 38 30 19 19 20 17 15 12 14 16 17 26 26 29 34 38 53 58 60 58 61 68 74 73 71 75 80 87 84 80 81 83 87 93 89 91 85 88 76 80 73 68 68 66 59 62 62 63 69 77 76 75 80 80 80 83 84 81 80 78 79 76 74 79 77 74 78 84 85 88 88 92 93 93 93 96 95 90 88 91 90 92 92 94 91 93 91 92 94 90 90 91 93 96 101 106 113 117 122 123 123 119 123 126 126 127 128 125 122 126 126 125 138 143 137 150 163 149 156 174 183 179 173 189 208 214 200 213 216 221 212 210 217 228 226 233 234 252 251 254 254 252 253 246 242 236 235 238 243 253 250 253 255 249 244 245 243 249 239 247 243 247 249 240 231 223 230 203 211 208 214 201 195 205 207 203 205
162 168 163 164 165 168 178 181 187 186 202 202 211 196 201 202 194 199 198 200 189 196 200 204 209 211 206 199 199 202 199 205 206 205 207 218 212 207 207 215 206 202 194 182 179 184 175 166 164 147 136 143 138 122 132 133 134 132 142 124 110 116 114 108 102 102 101 100 89 97 81 68 63 55 57 52 42 46 42 39 36 30 21 22 19 14 17 16 15 18 26 26 29 35 41 51 53 55 53 60 68 74 77 75 77 77 79 79 77 80 85 91 93 92 90 86 84 84 76 77 70 64 70 64 64 62 65 69 71 77 74 74 81 79 84 83 81 82 83 85 87 82 77 81 86 83 81 87 86 84 94 98 98 98 93 95 95 87 87 87 88 89 88 88 92 89 88 89 87 85 90 97 101 106 116 123 129 129 127 124 120 124 127 125 125 130 130 125 119 123 123 126 141 145 143 161 152 153 161 188 185 175 180 194 207 215 204 212 232 221 216 224 230 229 229 228 241 244 254 255 253 255 249 244 244 237 235 242 245 253 249 255 255 253 248 240 240 244 248 241 246 253 243 232 219 217 211 210 204 207 210 194 201 197 196 199
156 163 158 158 155 156 172 170 178 181 184 195 196 198 196 207 208 205 201 198 196 193 191 195 207 204 211 203 206 207 208 214 212 210 207 210 211 210 201 198 201 190 203 194 183 186 170 174 163 153 145 152 132 132 131 132 134 126 135 124 114 115 122 105 103 102 95 103 97 96 83 73 65 57 51 53 42 44 40 37 32 35 31 23 22 20 18 18 17 18 25 27 32 36 45 45 48 51 54 59 71 77 85 83 83 83 77 77 78 78 86 90 92 90 89 85 78 82 79 79 79 66 62 72 62 68 63 66 69 72 74 74 78 82 87 84 84 83 84 87 85 88 87 85 82 82 81 86 89 86 90 97 95 99 95 93 90 93 89 88 87 91 93 90 88 87 86 90 88 89 91 95 103 113 125 134 137 133 130 129 119 119 127 130 129 132 131 127 125 121 122 126 132 146 143 157 164 152 156 184 194 177 187 185 201 213 208 207 226 219 227 223 232 234 239 236 232 235 239 243 251 252 248 247 245 238 234 237 236 243 246 242 253 255 252 248 242 247 251 245 247 247 244 234 225 215 218 208 209 212 199 194 198 197 207 202
161 159 154 158 156 150 154 169 170 189 183 183 188 193 192 197 198 201 204 198 200 194 196 192 198 207 215 205 201 206 212 204 222 213 207 216 223 222 217 208 200 189 195 191 189 185 184 170 163 165 153 152 158 140 133 129 138 127 129 125 112 119 120 115 106 102 94 101 102 95 84 76 64 61 51 55 42 41 41 34 29 32 32 29 24 21 21 19 16 19 26 29 36 40 46 45 43 44 53 63 70 79 87 87 87 87 85 82 77 80 86 89 91 89 89 84 83 81 81 87 91 82 74 62 68 68 69 63 65 69 72 72 80 84 85 83 82 83 87 87 88 90 91 87 83 81 82 84 88 91 96 101 100 100 100 95 91 92 92 89 96 97 94 94 93 89 85 87 90 89 92 109 116 118 130 139 141 137 134 125 123 125 125 130 132 130 127 121 123 120 116 127 127 142 145 158 165 160 158 172 196 189 188 185 194 199 214 209 209 222 222 228 223 224 236 246 242 242 236 238 245 248 248 248 251 241 238 235 238 233 232 229 239 249 252 253 250 253 250 247 253 254 246 236 232 222 220 210 214 216 202 195 195 196 198 212
150 155 161 157 157 152 152 159 167 176 193 189 189 184 198 196 198 202 207 205 203 193 192 196 197 203 205 208 197 204 217 213 221 234 216 207 215 215 217 220 201 198 191 191 191 189 178 178 179 154 171 146 152 146 143 140 136 128 121 125 116 111 116 117 108 109 92 94 98 93 81 80 64 68 58 49 47 45 38 34 27 30 30 28 27 25 21 15 15 22 29 34 40 45 44 43 41 46 53 65 71 78 87 90 91 85 83 79 83 85 86 86 89 89 92 91 92 89 81 81 85 92 81 76 67 63 66 64 65 65 68 73 81 81 81 80 82 86 91 86 85 87 90 89 84 84 84 86 90 95 102 106 106 103 98 100 96 92 93 93 92 93 94 87 89 91 87 89 94 96 106 116 114 124 132 140 146 139 134 134 132 129 129 127 129 130 124 120 118 119 122 125 125 145 148 144 158 169 168 166 185 189 191 192 188 197 216 211 216 218 223 236 230 219 230 233 247 248 241 229 233 248 245 234 235 238 237 240 234 239 236 222 231 240 245 251 242 254 254 255 252 254 248 235 231 219 222 212 214 209 199 195 191 195 194 206
146 146 153 157 156 150 147 155 161 174 189 181 190 192 190 203 200 208 201 203 202 200 202 205 197 196 200 200 203 199 204 213 213 227 225 216 216 223 219 220 213 211 199 190 186 194 192 174 180 172 167 174 152 144 140 144 140 133 120 121 120 114 115 117 106 108 90 90 89 87 75 79 63 71 65 53 53 42 46 37 31 26 28 26 26 25 23 21 23 28 34 41 45 51 49 47 46 50 57 66 75 78 86 86 93 92 92 86 85 85 85 90 91 88 89 91 96 95 91 94 94 90 90 85 76 76 64 60 60 62 70 76 80 82 80 80 81 86 89 89 85 88 88 89 85 81 86 91 97 95 103 104 110 105 105 102 98 93 94 94 95 97 99 92 89 86 86 94 99 102 111 118 120 123 132 135 135 144 135 136 130 133 132 124 127 137 138 130 120 120 115 128 133 142 145 146 148 158 173 161 169 191 192 190 189 188 205 215 225 215 219 231 232 225 224 225 240 243 241 236 234 232 248 245 229 232 232 224 225 221 233 229 223 232 244 243 249 247 252 253 253 249 239 230 226 223 212 203 203 203 196 195 185 194 189 199
142 147 155 158 156 154 149 157 161 163 175 186 187 193 188 203 203 209 205 204 205 201 194 205 205 200 197 200 204 204 209 203 211 224 229 223 219 219 220 215 210 213 211 195 195 199 203 179 165 181 163 170 157 167 133 156 149 137 121 115 121 118 113 116 105 107 89 85 81 81 72 78 65 65 68 59 52 46 45 45 38 32 25 25 27 26 25 25 27 35 41 43 51 57 54 50 51 54 62 70 77 77 85 87 94 94 93 94 92 93 96 100 103 101 99 95 95 101 97 92 90 98 93 87 84 78 78 68 64 68 71 77 82 85 82 79 83 84 89 86 85 86 87 88 84 86 90 96 96 93 101 104 108 108 106 106 105 102 100 97 96 100 101 94 88 93 89 92 99 106 111 116 125 125 129 125 134 143 140 140 135 130 135 135 123 127 131 139 129 122 123 126 131 138 142 143 142 158 169 170 160 171 188 189 194 191 197 206 231 224 218 233 228 226 223 227 227 238 235 231 231 226 231 246 241 235 230 232 230 227 223 232 227 225 234 237 243 245 248 250 246 240 237 229 219 218 210 210 205 198 200 192 192 196 193 193
150 150 149 158 160 160 164 161 164 167 171 179 183 190 191 191 194 208 215 211 216 215 205 202 207 203 203 199 206 208 211 214 205 215 226 230 222 221 217 212 212 212 210 210 199 189 203 201 173 168 165 172 152 161 139 153 155 145 128 121 114 114 114 113 108 103 92 79 78 77 70 69 73 62 63 66 53 50 48 48 45 40 32 28 31 33 32 32 38 44 39 46 54 54 56 53 50 60 67 74 76 77 84 86 92 98 92 91 91 96 99 94 100 100 102 102 100 101 104 97 95 90 99 98 89 82 85 85 82 77 78 82 82 83 85 82 85 87 88 88 89 89 87 84 83 87 92 100 98 97 101 107 106 107 102 103 105 104 109 108 107 103 104 100 95 93 95 95 104 111 113 114 120 129 130 129 130 136 140 138 141 139 142 137 132 128 122 135 137 136 133 125 131 135 144 144 136 148 160 181 162 167 169 185 181 203 194 203 221 238 222 230 228 225 218 222 219 216 227 228 230 224 225 232 235 231 225 226 234 234 233 230 233 236 234 249 245 244 241 239 241 233 230 219 215 216 213 201 197 198 204 204 198 203 204 189
167 154 153 159 158 159 167 173 164 166 175 180 178 185 186 193 189 202 206 213 212 224 221 212 205 204 204 208 201 200 203 218 216 205 216 211 218 222 218 208 211 214 212 206 205 199 189 198 180 168 167 158 164 149 145 135 152 149 134 125 111 114 114 114 110 103 93 79 77 79 74 69 71 66 63 63 60 53 52 50 48 47 46 38 35 37 39 40 41 42 47 54 54 57 59 58 62 68 73 77 84 77 88 91 93 94 96 99 101 104 107 108 106 105 101 105 108 103 100 103 100 96 94 93 94 90 81 81 81 85 87 87 91 90 80 79 85 84 84 88 90 88 86 91 90 95 97 101 103 104 104 110 111 107 104 105 106 103 106 109 112 107 103 98 96 89 93 98 104 112 114 120 118 122 126 123 130 138 139 134 138 139 142 145 138 136 125 127 134 134 134 135 138 135 140 143 141 149 152 162 171 167 167 169 182 190 187 190 199 240 230 229 230 224 231 233 231 226 224 222 230 226 225 238 234 231 228 222 232 231 234 238 244 239 232 233 229 232 236 238 239 229 218 212 208 207 203 202 201 194 188 192 188 190 199 198
168 165 155 158 162 172 175 169 164 166 174 181 178 183 184 185 188 197 206 204 216 216 219 213 202 196 198 202 207 205 203 202 212 208 208 206 200 203 209 203 207 215 216 222 219 205 193 203 193 168 184 178 157 160 152 142 136 147 142 124 119 113 115 115 110 107 89 87 74 85 82 74 69 65 66 68 65 56 58 60 53 47 48 47 40 34 37 38 42 49 57 60 65 69 67 67 72 76 78 80 84 83 92 90 96 97 100 102 100 110 117 121 117 114 109 109 116 118 112 106 101 102 98 98 96 98 91 83 82 84 90 93 88 91 97 94 89 89 87 89 91 92 93 88 88 95 99 102 105 104 106 110 108 107 107 112 110 106 103 106 107 111 108 100 98 99 100 102 105 120 118 120 124 119 123 124 128 136 139 135 139 134 135 140 134 141 135 128 129 132 135 134 139 139 138 144 138 152 154 149 165 163 177 169 165 184 192 187 187 220 229 223 236 224 224 243 232 232 226 224 221 226 227 230 238 245 237 231 234 227 226 219 225 228 230 226 217 211 214 210 215 216 212 201 202 204 199 193 187 191 182 182 183 186 192 194
174 172 173 173 170 162 168 169 174 171 184 186 177 184 180 188 192 197 208 214 206 207 225 221 213 204 202 205 201 205 202 214 224 214 203 200 201 204 215 215 207 214 212 221 220 223 215 201 214 179 164 179 171 165 144 158 146 143 140 127 117 126 116 114 106 114 92 90 75 85 89 86 75 69 67 68 70 64 61 63 62 57 43 41 42 41 39 44 49 57 61 68 69 66 71 73 78 82 79 81 83 86 95 98 102 101 104 102 107 117 120 124 122 119 122 122 120 128 129 119 111 113 96 101 98 98 97 98 94 94 93 92 92 88 91 92 92 87 89 93 99 96 95 96 98 95 97 98 101 103 107 104 104 113 111 114 109 113 105 106 109 112 113 108 105 103 104 104 109 120 121 119 124 122 125 130 130 138 137 140 143 141 139 130 139 132 130 137 135 137 136 132 142 141 139 146 146 147 157 154 169 157 169 172 175 180 189 194 196 198 231 228 233 230 231 236 238 232 237 235 236 226 233 238 241 244 243 234 231 230 229 229 230 232 231 228 220 211 207 202 196 195 195 195 191 191 187 182 184 183 189 187 182 182 182 187
173 179 176 173 174 173 173 178 176 172 178 189 191 194 193 193 199 197 194 207 212 208 206 222 211 197 196 200 210 203 201 205 216 220 222 203 194 193 200 210 220 212 221 219 220 221 213 207 208 203 166 172 168 164 155 149 159 145 135 136 118 126 119 116 117 106 100 89 86 76 86 88 79 79 67 70 71 66 63 61 64 57 56 50 49 49 50 49 55 62 68 69 69 71 69 75 80 77 74 82 88 89 94 101 103 100 103 105 113 120 121 122 126 127 128 126 126 126 126 118 124 117 114 97 108 92 93 96 97 98 104 102 100 100 96 95 98 95 95 94 97 101 102 102 101 102 104 106 102 106 107 109 103 111 116 115 112 112 111 105 106 107 106 101 101 108 103 107 110 121 127 123 123 121 126 134 135 142 143 143 141 146 150 148 139 150 145 142 139 137 137 136 134 134 137 143 146 146 146 158 161 170 162 164 172 172 178 193 187 198 213 227 227 236 220 236 248 243 232 227 229 242 233 230 237 236 234 240 230 225 224 227 221 218 212 216 216 213 204 191 189 189 186 188 183 188 180 173 176 182 184 182 181 175 171 175
169 171 179 178 177 175 181 174 180 176 189 191 199 203 202 192 201 206 192 198 199 194 195 204 205 202 202 196 194 198 195 192 195 208 211 207 192 188 184 197 197 223 211 224 211 218 218 204 209 210 186 179 162 163 169 146 158 159 138 143 130 118 127 113 115 111 104 84 85 88 85 88 84 76 80 69 72 70 66 67 63 60 56 53 55 57 59 65 73 74 69 70 70 71 69 75 80 75 78 89 89 94 94 99 96 97 102 107 114 121 122 132 130 129 134 130 132 137 128 132 113 120 117 105 98 97 94 90 97 105 102 105 105 112 104 103 97 93 94 96 96 100 104 104 102 102 104 102 101 108 113 109 102 107 114 120 112 108 104 105 102 99 97 100 101 105 107 104 109 117 120 130 122 124 127 133 132 140 147 142 145 155 151 153 148 148 148 143 141 138 139 144 142 138 138 139 144 142 152 147 150 164 165 173 168 169 181 180 185 200 205 207 224 233 240 226 226 244 234 228 234 227 233 233 227 232 226 228 230 229 224 217 214 213 215 211 215 205 208 203 202 190 186 187 187 184 180 174 172 173 172 169 180 181 174 174
172 173 174 172 177 177 181 184 179 179 188 194 195 209 202 203 202 204 190 194 200 198 199 202 201 193 186 178 179 184 184 182 183 186 194 201 203 198 197 200 193 208 223 222 222 222 220 214 212 205 198 183 170 166 156 166 156 151 150 142 134 123 116 118 115 120 103 93 88 83 85 88 88 74 83 72 65 71 70 69 68 67 61 61 61 62 68 73 77 75 71 71 72 68 71 76 78 73 82 89 89 94 99 95 91 94 103 112 111 120 124 133 138 132 138 140 133 132 133 124 127 120 117 110 105 103 93 90 91 101 105 103 101 107 109 104 101 96 99 103 103 107 103 107 104 106 108 106 102 100 103 110 101 104 109 111 112 111 102 98 99 98 100 100 101 103 105 102 102 111 111 131 130 129 135 140 141 140 145 140 144 154 156 155 147 145 148 145 138 139 144 144 149 148 142 141 145 140 149 154 157 150 170 175 171 174 173 187 182 196 200 209 212 215 226 215 231 237 243 234 232 237 241 234 229 221 220 220 216 209 209 214 211 211 211 214 207 203 202 199 198 184 181 182 187 186 183 177 178 179 177 178 174 175 175 168
176 176 177 171 170 175 180 180 188 185 186 192 195 208 202 205 198 196 194 181 190 190 195 200 195 186 181 181 180 178 185 184 173 176 186 186 198 201 195 201 201 207 225 227 223 231 220 209 210 210 200 190 191 164 161 153 163 166 150 134 142 129 117 116 120 120 116 94 87 87 87 91 94 82 79 79 68 68 70 71 74 74 74 71 70 70 72 74 75 76 72 73 72 74 77 81 79 78 85 88 89 91 99 98 96 92 101 111 115 129 124 130 138 137 140 136 137 137 130 131 120 125 129 116 110 105 105 103 93 98 100 102 103 104 104 101 104 101 99 103 107 107 112 106 105 102 105 103 103 102 103 106 106 100 104 110 108 106 108 99 100 105 102 103 104 103 104 104 102 104 111 121 132 127 141 134 143 139 143 143 151 149 148 158 154 150 151 142 137 137 147 145 151 147 147 149 153 146 143 151 162 152 162 178 173 176 179 188 186 191 198 197 209 202 212 226 213 217 226 227 229 226 227 234 231 214 208 206 203 200 198 205 206 205 206 211 217 200 188 183 183 181 177 170 172 175 173 171 172 170 176 181 178 176 172 172
175 174 172 172 169 172 181 177 179 188 188 197 190 208 200 203 204 193 194 178 191 186 181 182 175 179 180 178 177 174 175 182 190 182 174 175 178 180 196 206 205 208 214 225 227 222 218 214 211 210 199 195 184 181 164 168 148 156 155 142 144 133 130 117 121 122 120 109 98 81 83 88 93 90 77 77 74 73 72 69 71 75 77 75 72 73 74 73 71 74 70 72 75 75 79 83 83 79 88 87 89 91 98 99 109 99 103 108 119 129 132 123 137 135 137 140 136 137 138 134 131 129 128 130 117 112 109 95 100 100 100 101 107 106 104 101 98 99 102 101 110 110 105 109 110 111 107 104 102 98 100 104 106 102 104 113 107 107 105 105 103 103 104 110 107 102 102 102 101 101 109 118 127 130 135 134 136 142 136 143 142 152 148 151 150 141 148 141 133 131 140 152 147 152 149 148 146 149 143 148 149 158 157 163 182 167 179 192 197 194 196 197 199 213 208 214 211 231 212 223 226 217 217 213 209 203 201 203 202 197 196 196 196 200 200 201 196 188 184 182 180 181 175 167 168 171 171 171 178 178 164 160 158 156 165 172
176 169 168 169 166 174 172 179 179 184 188 200 194 200 203 192 201 201 195 190 183 182 186 182 173 175 175 180 167 170 168 171 178 189 182 186 181 181 180 203 210 215 211 222 228 223 221 221 225 213 206 190 192 193 176 163 162 143 153 145 139 144 133 129 120 129 117 114 100 89 82 80 87 92 81 77 77 76 73 75 74 76 76 75 74 72 74 75 73 73 74 73 80 80 83 82 87 84 84 91 91 89 93 107 108 109 106 110 115 129 137 129 128 137 134 135 140 139 139 137 135 134 133 124 128 115 113 104 98 102 108 108 108 106 108 102 98 97 99 104 107 108 107 109 104 103 105 106 107 100 101 107 103 106 105 111 110 111 111 105 103 108 104 107 109 107 102 101 101 104 107 115 124 131 134 130 129 130 136 136 136 141 136 136 147 151 148 140 137 132 135 143 151 146 156 156 151 146 147 149 146 157 157 162 158 167 173 178 205 190 195 193 182 194 209 220 219 208 229 209 220 216 213 218 203 203 206 199 196 192 190 185 192 193 195 193 191 194 190 185 179 178 177 171 172 169 162 154 153 161 170 167 165 158 148 152
177 173 166 165 171 169 165 171 181 178 188 206 201 189 215 202 205 204 199 188 188 186 195 193 175 176 178 175 159 163 164 162 176 176 182 176 188 180 177 180 215 204 207 225 217 221 216 221 221 215 207 188 201 189 183 174 168 163 154 150 137 144 130 136 127 125 124 120 98 95 79 86 84 89 84 78 79 74 71 73 70 73 72 75 76 72 74 77 75 74 73 77 80 78 79 84 89 85 82 85 90 88 89 98 104 104 107 107 117 118 136 129 130 128 130 134 135 142 136 141 137 133 136 127 131 119 116 109 104 95 106 108 111 107 107 100 96 92 92 92 93 99 100 102 107 102 104 102 104 102 103 100 98 97 99 107 112 114 110 105 103 102 105 107 108 108 106 107 107 107 108 117 126 133 130 127 122 126 126 134 137 137 140 132 138 143 137 139 138 133 136 139 140 150 149 152 155 153 149 146 147 150 155 159 161 161 176 183 190 192 200 194 188 192 188 204 219 213 206 217 214 214 208 211 205 203 203 193 194 195 194 188 182 189 192 199 197 189 184 177 175 171 166 164 158 158 158 155 151 147 144 146 157 162 158 145
175 176 172 167 167 170 173 167 176 179 192 207 205 200 198 215 207 201 192 184 181 190 185 190 175 170 172 167 160 161 167 169 170 181 185 179 184 184 182 180 184 208 207 216 215 224 213 219 226 212 206 194 195 196 188 178 176 163 160 151 148 131 147 134 134 127 119 117 113 87 85 85 83 83 82 79 81 79 74 70 73 71 74 71 73 72 73 77 78 76 76 78 81 80 80 84 92 89 84 85 87 92 90 91 105 102 100 110 116 112 121 141 123 130 121 124 129 131 133 137 136 135 137 132 129 124 111 112 101 97 97 107 108 105 99 94 93 95 93 89 89 91 97 93 92 99 106 109 106 105 102 100 98 96 104 105 109 111 107 101 103 100 100 105 105 104 109 110 112 110 116 121 129 130 126 126 123 125 123 128 134 129 137 140 140 141 134 137 141 140 143 142 143 138 151 153 150 150 154 151 151 147 155 158 153 152 160 186 190 194 189 194 190 188 191 188 198 212 212 212 210 207 207 201 197 204 202 191 192 186 193 180 177 174 179 178 171 173 168 164 172 171 167 155 156 156 150 144 143 144 143 134 135 154 163 162
164 164 163 173 177 169 179 172 182 178 187 197 202 191 198 203 206 203 193 187 178 180 184 190 179 171 170 161 160 163 167 170 172 179 191 177 184 186 182 188 183 196 204 207 224 210 217 208 218 219 205 198 206 198 201 181 189 174 156 163 158 145 140 132 143 137 123 120 121 90 88 85 83 83 81 83 84 78 77 74 70 72 73 72 71 71 75 77 78 80 80 84 80 80 85 83 86 89 85 82 86 85 89 94 94 110 100 98 109 121 112 121 137 124 127 119 125 132 134 132 135 133 131 132 130 124 112 111 107 104 99 106 106 109 97 90 95 95 88 88 82 86 91 97 100 101 96 99 106 104 104 99 98 96 102 103 104 105 103 104 98 102 100 106 108 107 113 119 116 117 124 128 135 139 130 122 124 125 124 122 130 131 128 134 134 133 137 136 138 144 142 143 141 139 143 142 151 144 148 149 149 152 152 160 160 155 156 178 188 201 187 199 190 197 199 195 187 193 201 205 210 202 208 200 197 207 204 189 189 183 183 179 170 172 172 172 169 164 165 164 159 162 160 154 151 149 143 134 131 130 137 142 145 138 142 153
169 161 156 154 167 174 179 174 187 182 182 189 200 190 184 199 193 202 196 190 184 179 175 184 179 169 169 163 158 160 155 165 170 175 187 176 175 177 181 182 197 188 200 204 206 215 216 210 212 212 209 198 205 202 202 189 189 180 170 166 159 158 147 139 135 137 132 131 112 106 88 84 84 79 80 79 78 74 76 74 72 71 74 69 68 73 74 77 83 80 76 80 78 80 84 86 83 86 83 79 79 81 84 87 89 88 106 99 97 105 117 117 126 136 138 128 124 128 131 128 124 127 127 130 131 124 118 107 112 101 103 103 107 110 94 94 96 92 88 86 83 81 85 94 91 93 94 94 90 100 100 100 99 96 98 101 108 105 102 106 101 97 106 108 112 106 109 118 117 120 126 134 138 136 139 132 129 128 128 129 127 127 132 135 137 135 132 136 136 140 141 140 139 138 139 147 139 150 151 144 146 146 142 144 145 151 158 162 192 189 190 189 188 192 208 201 196 194 194 195 197 201 200 202 193 199 197 192 187 182 178 171 163 167 171 163 161 161 167 167 165 159 155 148 145 137 127 127 131 123 117 117 121 140 150 146
179 175 165 162 161 175 180 182 184 191 193 187 202 200 189 188 190 191 187 188 184 181 175 175 175 170 168 166 160 159 157 161 169 174 183 182 178 173 174 174 185 192 181 208 207 209 220 214 216 215 201 196 197 197 195 196 192 182 172 165 164 148 150 147 133 141 132 135 108 112 84 88 81 78 79 79 76 76 71 74 75 76 75 73 68 73 80 81 84 83 80 81 81 78 80 85 83 90 85 79 76 75 74 81 86 87 86 100 100 101 95 104 111 125 130 131 127 125 123 125 121 120 122 122 123 124 121 113 109 111 102 103 107 107 104 93 98 91 87 85 84 81 81 87 91 90 90 94 98 97 96 102 95 97 94 101 104 110 103 103 105 101 106 110 114 109 115 113 121 126 133 140 141 137 132 137 133 128 129 133 132 134 134 135 137 135 134 135 140 140 138 135 135 141 142 140 152 146 155 146 144 149 151 148 142 141 149 169 171 192 190 190 177 189 199 205 194 193 190 190 188 193 202 206 206 203 197 190 185 184 178 174 167 163 164 160 165 169 168 166 164 146 145 146 138 133 123 124 122 122 117 120 118 122 137 143
172 170 168 166 166 174 174 182 190 188 193 184 194 194 192 193 195 190 189 182 188 177 179 179 175 162 162 161 155 156 159 156 166 175 181 185 184 180 175 176 179 191 193 194 206 202 212 221 217 211 214 201 202 202 194 188 190 189 179 169 166 145 159 148 128 142 135 132 115 113 88 91 80 75 73 73 74 74 69 70 72 74 77 75 74 74 83 82 84 84 79 78 82 80 80 88 87 93 88 81 76 76 77 76 78 84 87 84 94 96 105 99 100 110 123 130 128 128 121 122 118 117 123 121 116 121 119 116 112 110 104 105 107 108 103 96 92 90 89 84 85 82 81 85 88 86 85 90 96 94 95 91 98 94 99 101 101 106 107 102 101 102 106 111 110 108 118 122 131 124 131 140 142 138 129 135 137 135 136 133 132 136 138 140 141 134 129 129 136 133 139 139 132 132 137 140 143 150 153 160 149 153 154 154 150 143 149 157 170 182 198 188 189 189 188 201 198 197 200 194 191 190 196 200 202 202 202 187 185 183 177 177 167 164 169 165 162 161 156 153 153 147 145 137 133 127 124 123 122 117 112 112 117 112 122 136
158 169 173 164 157 176 172 180 182 194 195 196 190 206 194 191 189 182 187 184 190 186 173 179 172 163 160 162 163 166 164 162 167 170 177 177 185 181 174 178 180 191 195 186 207 197 200 203 207 215 212 205 199 205 198 187 189 186 187 174 167 157 152 154 133 135 135 131 118 117 97 83 90 75 68 72 71 74 70 70 71 74 75 77 76 75 83 85 83 82 79 76 81 82 79 86 89 90 84 83 78 79 76 77 75 78 79 86 86 92 91 106 101 104 117 124 134 134 125 122 126 121 121 121 115 118 118 118 110 115 104 107 106 106 102 94 88 86 87 85 82 86 85 86 85 86 85 80 85 92 88 94 94 94 96 102 101 105 106 99 99 101 109 111 108 109 118 130 130 127 131 144 142 139 136 138 141 142 140 140 131 133 133 138 140 139 133 136 132 133 132 135 134 134 131 133 135 141 146 152 149 141 149 151 158 146 150 159 171 176 188 197 186 192 194 197 200 194 196 203 203 198 192 191 190 182 180 179 177 175 174 168 161 163 159 155 154 157 160 157 148 139 133 134 132 126 123 124 118 114 110 108 107 115 118 127
154 157 166 163 157 167 171 170 177 186 185 187 192 195 196 189 189 183 181 179 184 183 174 171 173 161 164 165 163 167 166 166 173 171 172 171 176 186 178 176 181 177 194 193 191 196 200 191 197 203 212 205 197 202 201 188 187 182 185 172 170 170 151 159 134 137 136 135 118 119 104 81 90 84 72 72 76 71 71 72 73 75 71 77 77 75 81 86 82 83 79 79 79 82 82 85 87 85 87 86 81 78 73 73 77 81 77 77 88 88 93 93 99 100 112 117 127 133 129 128 129 122 122 118 117 118 120 117 114 111 112 106 106 114 102 91 88 80 82 84 85 85 89 90 83 80 81 78 77 89 86 93 98 91 96 97 94 101 101 103 96 100 110 107 113 115 118 127 130 126 136 147 139 137 132 137 143 140 138 139 134 131 131 131 134 135 137 133 136 134 133 135 133 132 134 134 132 134 137 139 141 139 134 149 152 149 149 151 171 172 181 195 185 179 195 190 183 190 196 195 196 195 183 181 180 176 172 167 166 165 165 162 160 157 156 148 145 151 148 141 142 138 130 132 135 128 122 118 115 111 107 103 103 100 102 121
149 148 160 163 156 163 176 170 171 177 191 180 181 181 194 192 192 188 181 177 179 181 171 163 171 161 161 164 166 167 172 170 177 175 169 173 169 173 175 179 183 173 181 196 192 200 200 202 197 201 199 202 203 199 194 188 182 183 190 173 169 166 154 163 138 136 130 131 116 119 105 85 85 85 81 76 78 77 74 74 74 74 76 78 79 78 83 83 90 83 80 81 84 87 84 87 87 85 81 85 85 79 74 75 78 85 79 75 82 86 88 90 98 98 112 105 122 122 132 124 121 117 118 116 116 119 120 120 114 116 113 105 101 104 99 91 83 83 83 88 90 87 84 89 80 76 78 75 72 84 84 93 100 96 93 98 97 95 99 101 100 101 105 107 106 117 107 128 136 127 135 152 136 139 139 144 146 142 139 141 135 131 129 136 135 135 139 141 139 140 142 140 142 140 139 133 133 136 132 135 136 132 137 143 151 155 152 149 173 172 178 191 177 179 187 195 190 182 184 181 186 188 186 178 169 172 171 166 164 159 160 161 163 159 152 144 144 144 138 133 131 129 130 132 135 130 123 121 113 109 107 107 110 110 103 106
149 148 160 163 169 162 173 177 173 169 172 183 177 184 191 186 199 197 194 184 192 182 176 167 161 162 159 159 165 167 164 171 177 175 173 171 165 171 173 174 184 178 179 191 196 192 193 197 198 198 200 201 197 196 195 194 179 181 183 174 172 165 154 165 142 139 130 126 114 116 103 93 85 89 85 82 84 79 75 71 71 73 71 76 82 78 88 86 87 87 82 82 83 84 85 87 86 87 83 82 81 80 75 74 79 81 79 79 82 83 86 86 96 98 104 110 117 119 124 126 117 113 115 115 121 122 120 120 110 112 110 105 105 106 103 89 89 78 83 86 92 91 85 85 80 77 75 76 80 83 84 92 95 96 92 95 93 96 100 102 105 106 106 107 110 115 111 120 129 138 137 136 151 139 136 140 146 142 138 138 138 131 129 136 133 133 135 138 137 134 133 137 136 132 134 133 126 132 135 135 135 131 132 138 150 161 161 152 173 166 181 189 180 174 182 183 182 184 178 184 188 181 184 183 176 174 166 163 164 151 154 156 155 155 147 138 133 129 130 130 125 125 131 128 126 124 118 114 106 102 101 109 110 113 108 112
147 149 149 169 161 165 170 174 176 176 175 175 177 178 187 187 197 192 190 186 187 191 177 172 170 164 163 151 158 161 160 166 178 179 172 173 165 171 174 180 178 183 180 181 197 187 187 188 194 194 191 191 198 195 197 192 183 183 181 174 170 168 157 161 147 138 122 126 115 109 102 93 89 88 90 93 83 81 77 73 71 74 70 74 76 81 86 89 90 86 84 86 84 87 88 83 85 84 84 84 80 79 78 77 80 80 81 85 91 90 88 88 95 100 107 112 118 115 120 120 119 111 114 109 117 125 124 114 106 107 106 104 107 106 103 95 89 87 84 91 93 93 85 85 84 78 77 80 84 87 87 92 91 91 89 90 94 97 102 105 110 105 108 108 112 109 113 114 128 135 140 137 134 144 143 143 145 137 139 136 128 133 130 135 137 131 133 129 131 130 128 133 132 131 128 128 127 129 130 132 138 131 129 143 143 152 163 159 169 168 179 187 177 178 171 178 178 176 173 177 175 177 173 178 178 169 154 155 156 151 151 158 155 149 136 129 127 127 123 123 124 125 127 129 122 119 118 105 106 104 103 103 104 107 105 110
142 143 149 166 161 157 170 163 172 168 182 187 182 179 184 186 191 191 194 188 183 188 177 179 176 173 158 163 155 166 164 165 172 176 175 176 175 170 175 181 185 182 186 181 188 190 180 182 183 186 194 194 189 187 182 187 181 176 180 172 171 163 154 156 146 136 120 122 116 113 103 90 88 90 93 90 84 87 76 74 74 74 74 74 77 83 79 87 88 83 84 85 83 82 82 79 80 81 85 81 78 75 72 75 80 83 85 90 90 89 93 93 94 99 108 110 120 119 120 120 124 113 118 111 114 118 116 111 107 104 104 104 107 106 106 104 94 97 99 96 96 101 98 90 89 87 87 92 91 91 92 93 93 86 87 88 97 101 99 103 103 105 106 103 112 111 109 117 125 129 134 140 133 138 142 150 148 148 144 139 134 132 132 129 134 138 131 132 126 121 122 127 128 136 130 129 126 126 128 132 134 136 130 139 140 160 162 158 172 173 181 187 180 185 177 175 176 178 170 169 171 169 176 179 178 165 157 156 150 150 150 149 154 146 131 136 129 127 123 121 117 123 124 124 122 114 108 102 101 95 93 95 100 105 103 107
133 136 147 161 166 158 168 168 158 169 167 183 181 189 192 188 189 185 194 196 185 187 182 176 176 180 170 148 157 162 163 170 171 172 169 169 170 170 176 185 186 187 184 181 184 184 188 183 182 181 186 191 187 184 185 186 178 169 177 172 169 159 151 148 141 128 119 118 116 112 108 91 97 87 91 89 83 87 78 76 74 73 73 77 79 85 85 81 86 86 84 85 87 88 83 79 79 79 84 82 80 79 80 83 85 87 89 92 95 98 95 94 98 102 107 107 121 123 123 121 124 117 122 119 115 115 113 107 111 103 98 103 109 103 104 107 99 96 98 95 90 97 99 94 90 88 91 86 88 94 96 94 93 87 88 87 98 104 103 103 106 104 110 106 109 108 109 115 125 128 133 133 135 130 131 134 145 137 141 140 139 131 129 127 129 135 129 128 127 124 126 129 130 132 132 133 130 127 134 135 135 138 144 132 142 163 162 157 170 169 188 185 189 185 185 180 169 174 180 171 168 168 168 182 182 167 162 153 150 152 154 147 148 137 134 132 128 128 126 122 123 123 125 118 111 110 102 100 95 90 84 84 90 103 104 101
138 141 147 157 159 157 161 166 163 170 164 159 188 181 198 180 188 188 192 193 191 186 186 175 171 174 171 170 147 157 173 171 172 172 168 169 170 172 178 182 184 192 192 191 186 184 177 182 180 179 183 186 185 182 178 175 168 173 172 169 165 158 148 143 134 120 117 116 114 111 111 93 97 88 89 84 83 78 77 73 73 70 70 68 72 74 79 81 76 80 80 79 77 79 79 75 76 78 84 86 86 83 82 88 89 86 93 96 100 108 109 101 100 105 107 106 116 120 124 122 120 120 121 118 117 112 116 113 105 105 104 99 103 105 104 106 107 108 105 104 99 96 96 97 93 93 95 95 93 96 94 93 93 87 87 88 99 106 108 105 104 100 109 108 109 108 114 113 118 127 127 120 120 119 120 129 132 142 142 137 138 133 129 130 126 133 128 125 127 130 129 126 128 127 125 131 129 129 123 127 127 134 133 151 137 160 166 165 168 166 184 174 184 186 185 185 184 183 176 178 167 171 168 176 180 162 158 153 151 155 150 140 144 134 132 125 124 129 126 126 121 118 123 118 110 110 97 89 90 89 85 85 84 86 99 99
143 140 148 157 157 155 156 155 161 162 173 171 170 186 191 204 184 179 195 195 195 192 187 187 179 181 175 171 167 155 164 173 173 166 167 171 174 176 185 188 190 191 188 196 189 186 188 174 180 173 181 177 182 177 173 172 172 170 160 160 155 147 142 139 133 125 118 113 109 110 115 93 102 90 86 80 81 74 73 67 64 63 63 62 64 69 73 77 77 77 76 76 77 76 74 75 76 82 85 87 89 85 80 85 89 95 96 98 100 101 101 98 102 110 111 111 118 122 122 120 114 114 114 116 119 118 118 113 115 114 108 101 100 102 104 105 111 106 104 106 103 101 99 102 100 97 97 101 104 101 100 91 92 89 89 88 99 102 107 110 104 100 105 109 113 109 115 115 116 128 122 118 120 117 120 119 127 137 144 139 132 130 130 130 130 130 128 122 123 125 127 129 126 130 129 124 129 121 119 123 125 121 128 147 136 155 160 166 172 174 175 183 185 179 187 180 181 181 190 181 178 171 169 174 175 170 161 148 151 155 142 146 140 131 128 124 126 124 127 128 123 114 117 115 111 103 87 85 85 86 82 82 84 86 91 98
145 144 144 150 157 159 163 155 160 160 163 166 169 175 183 203 201 193 187 202 201 195 192 190 185 183 190 182 182 175 173 177 178 180 185 183 184 180 190 196 200 202 194 200 197 189 191 186 182 175 178 171 176 173 169 167 164 167 157 153 147 139 140 135 130 120 116 117 115 107 111 93 105 91 88 78 75 75 67 65 63 63 64 61 60 65 69 67 73 76 79 80 76 76 74 74 78 84 88 88 88 87 89 91 93 97 100 102 102 103 110 110 111 114 115 122 124 122 121 119 116 115 111 111 116 118 124 126 121 120 112 110 98 105 109 114 111 112 109 107 107 103 105 103 104 99 99 95 98 98 98 94 86 95 91 92 100 100 106 111 110 104 106 107 110 112 116 116 118 126 127 120 121 120 118 122 122 127 133 129 122 128 134 132 130 132 127 118 122 126 124 120 124 126 126 131 126 122 119 118 118 124 125 135 138 150 159 159 169 168 173 183 190 183 193 182 187 174 181 180 178 170 165 170 164 165 161 147 149 149 136 146 135 128 124 127 129 128 126 123 116 119 120 114 110 97 86 84 80 79 79 86 85 84 87 92
144 149 148 147 155 150 163 164 158 154 157 161 160 173 176 180 195 193 186 186 193 195 196 192 191 188 183 192 186 182 177 182 191 187 189 191 184 186 193 196 196 195 195 202 198 191 190 190 189 185 181 166 173 170 158 159 163 158 152 151 142 130 137 132 133 121 122 115 117 103 109 98 102 89 87 79 71 71 65 67 67 63 63 62 57 59 63 70 67 74 75 80 71 75 76 77 82 83 91 87 86 91 93 95 98 102 105 106 109 109 109 114 117 118 117 113 118 122 119 116 116 114 116 113 112 114 120 122 118 129 124 125 117 104 107 112 111 111 108 105 103 102 107 107 113 106 100 101 97 94 94 94 90 90 94 89 101 102 99 104 110 112 113 108 108 113 113 118 119 117 119 114 115 116 120 123 128 127 131 139 119 116 125 131 132 126 124 117 114 119 123 128 126 130 130 135 129 127 121 120 118 119 126 127 141 149 158 160 165 169 176 184 189 184 190 178 187 182 176 176 174 167 158 165 158 162 158 150 149 144 137 142 126 129 126 129 127 121 121 119 117 113 111 108 106 94 90 83 80 77 75 78 85 87 88 85
140 151 154 148 150 149 151 158 165 164 155 160 163 164 169 171 180 190 189 185 172 179 192 205 191 193 188 192 200 187 182 190 189 190 187 183 182 179 190 197 195 190 190 197 195 194 188 189 191 190 183 171 169 176 154 154 161 152 150 141 143 129 138 137 129 125 124 111 116 107 105 102 99 89 80 75 68 67 68 69 70 65 61 54 54 52 56 66 70 69 69 72 76 76 77 79 84 85 88 88 93 100 104 104 107 113 112 109 111 113 115 119 122 118 119 119 116 120 117 120 114 115 123 125 126 129 129 125 122 122 124 118 124 113 106 110 113 116 109 106 107 105 98 96 96 109 110 105 102 96 99 102 98 88 92 93 93 106 102 100 99 108 113 110 107 104 117 120 122 119 117 115 117 115 118 119 120 124 130 134 137 128 123 119 120 123 121 114 116 115 118 119 123 132 126 130 127 125 118 118 121 117 125 122 145 141 153 165 149 168 180 196 180 191 194 184 184 182 172 181 177 168 161 158 152 160 152 151 145 145 142 142 127 133 126 124 124 122 118 114 116 114 109 106 98 95 86 82 80 76 76 74 79 85 89 87
144 152 150 154 144 145 145 148 150 156 147 158 163 168 167 169 168 181 190 190 185 172 180 192 202 187 194 196 198 196 187 192 193 189 194 192 184 184 185 200 202 197 198 199 195 196 195 190 188 189 180 167 164 170 152 163 150 148 143 143 138 136 136 138 134 124 125 114 112 109 108 107 99 92 77 76 65 66 69 71 70 67 56 54 55 54 52 56 67 72 68 75 75 76 83 83 86 88 85 94 103 107 108 113 114 111 113 120 120 123 125 122 126 121 122 124 123 119 122 120 117 115 115 124 124 121 121 128 124 115 123 119 118 117 113 107 108 114 120 117 113 114 113 109 103 99 104 107 108 103 96 99 102 97 92 97 98 97 107 106 99 100 110 111 110 105 116 117 123 121 116 114 116 112 112 117 119 121 109 117 128 124 120 119 121 120 117 110 113 113 114 119 121 122 136 133 129 121 118 114 118 121 119 123 136 138 155 152 159 146 166 184 196 177 194 189 197 190 178 179 180 168 164 159 154 156 149 151 143 141 146 136 128 136 125 124 123 115 112 108 105 106 105 101 95 96 91 86 78 77 79 80 80 83 92 95
139 150 157 156 148 141 143 142 148 156 150 157 159 169 170 169 166 168 185 181 189 182 181 184 185 192 184 186 202 191 188 191 194 195 195 193 193 193 187 188 203 195 196 203 207 201 200 200 190 184 183 171 170 169 156 159 147 149 139 148 138 141 133 142 135 124 123 116 112 116 112 109 101 91 81 81 64 69 64 70 65 67 56 54 53 50 51 55 62 67 71 72 77 78 90 87 91 93 94 104 108 113 110 113 114 114 112 117 121 122 122 120 119 122 125 131 134 133 126 126 129 122 124 128 133 135 135 129 126 118 120 124 121 117 114 116 111 117 119 124 119 115 113 112 113 106 103 105 107 103 100 107 100 95 92 93 89 99 97 101 97 99 109 109 110 105 115 119 123 121 118 115 113 111 108 109 116 114 119 114 116 117 119 120 119 116 115 111 114 111 109 111 115 121 115 123 122 115 114 111 113 124 121 122 134 140 149 159 164 155 149 177 180 176 189 195 178 180 177 176 171 162 159 161 162 157 150 150 143 140 141 133 135 134 126 122 118 112 106 105 102 106 103 96 96 99 97 88 83 76 77 79 80 82 92 97
140 148 141 158 153 147 145 144 146 158 155 167 163 171 170 167 162 164 164 177 181 184 192 187 188 194 186 192 190 191 187 185 190 192 203 198 193 195 191 188 189 191 189 189 189 194 196 198 200 191 182 177 177 173 163 162 156 148 141 136 147 140 137 136 138 124 112 115 116 112 112 114 106 95 90 78 82 67 69 68 65 66 58 60 59 52 52 56 60 63 70 72 81 84 89 91 97 91 100 107 112 114 114 114 117 116 113 116 120 118 118 123 127 134 140 139 140 143 145 130 137 137 133 131 131 131 137 138 138 133 119 111 116 125 118 111 117 116 117 115 113 113 111 114 112 104 109 110 111 103 104 102 106 87 90 90 89 91 97 100 100 97 108 107 110 108 114 127 122 124 119 118 114 107 106 107 108 112 109 116 115 113 110 114 118 124 116 116 116 118 114 114 116 114 115 118 121 115 113 114 116 124 123 124 133 137 142 153 155 171 155 158 180 176 182 185 190 177 175 177 171 160 157 157 156 154 150 146 141 141 136 131 134 133 125 120 116 108 99 96 96 96 93 90 93 98 96 92 83 79 78 82 83 82 86 99
132 149 145 147 147 147 148 150 154 159 157 174 172 166 180 182 171 166 165 170 176 178 184 185 193 189 190 189 190 191 184 190 187 186 198 198 197 201 194 189 191 188 189 193 189 190 189 193 192 184 182 172 172 169 167 167 158 155 152 145 151 147 128 133 137 127 108 111 118 110 113 113 112 105 86 90 87 76 75 72 70 60 63 59 60 58 57 54 58 65 66 74 85 87 90 94 98 96 102 106 115 113 117 118 116 117 121 119 114 116 117 121 128 127 136 134 134 136 130 128 128 137 139 137 141 143 138 132 129 134 133 123 110 118 118 115 110 114 120 127 131 129 130 118 114 118 109 107 106 111 104 98 106 98 84 87 87 93 101 98 98 100 106 106 110 111 113 125 124 123 115 112 113 112 109 107 106 110 112 115 113 115 113 106 114 118 116 120 116 113 112 110 115 117 116 119 120 118 118 115 119 121 123 126 132 133 135 151 149 159 170 152 164 175 177 185 177 180 178 174 166 160 156 153 151 150 150 142 138 132 130 131 129 125 122 109 109 101 97 98 96 98 95 93 93 95 93 94 89 85 85 88 89 86 87 97
136 129 158 151 147 140 149 150 156 159 163 166 174 170 170 169 178 177 170 169 173 173 187 179 185 187 196 191 191 194 192 187 191 187 195 191 191 195 191 188 189 181 191 187 180 179 177 182 184 180 182 172 172 166 162 158 162 161 151 146 152 149 146 127 137 132 122 104 114 109 109 115 115 109 101 89 86 86 74 82 73 64 59 66 60 55 59 53 58 66 67 75 87 90 92 94 95 102 101 113 114 108 116 121 121 127 130 130 129 121 118 122 122 125 128 132 140 141 136 132 134 135 144 146 147 150 148 152 140 135 127 131 126 123 131 126 122 118 119 125 127 125 125 131 130 124 126 123 113 108 107 103 94 106 88 88 92 95 96 92 101 100 104 102 107 109 116 120 119 121 112 107 110 109 107 108 106 106 109 110 110 110 111 107 115 121 114 124 120 123 120 106 109 115 118 119 123 125 123 121 122 122 123 128 137 131 131 144 149 157 156 157 164 164 170 165 173 173 174 173 162 155 155 147 146 144 143 136 127 127 128 122 119 117 112 105 100 93 93 88 87 89 94 94 97 95 93 90 88 88 91 92 89 89 87 95
127 140 137 155 150 150 145 154 159 156 157 167 162 158 164 169 168 177 174 172 173 171 173 184 177 199 183 199 190 198 195 192 189 187 191 198 196 192 191 186 183 178 179 177 175 177 180 176 189 178 175 174 177 173 162 147 161 166 149 147 147 150 141 140 132 143 125 121 107 111 102 113 114 109 106 94 88 93 79 73 81 71 61 67 63 60 59 58 60 68 71 78 83 93 91 93 98 101 104 114 113 111 122 130 132 131 135 135 133 136 132 133 137 141 145 143 153 156 147 146 142 143 146 145 145 148 147 147 145 140 138 131 130 122 127 133 128 132 133 134 131 131 133 134 137 126 124 123 123 109 112 104 99 91 109 93 89 91 97 100 105 107 108 111 109 113 118 118 118 120 114 115 115 115 115 115 110 113 113 110 110 113 112 112 114 116 114 121 120 124 122 117 115 116 117 122 125 125 128 126 124 125 126 128 133 135 132 140 146 153 161 162 154 162 166 170 166 164 170 174 166 155 153 152 141 143 141 130 120 124 124 119 121 114 102 97 96 88 85 88 93 90 88 86 88 91 91 90 89 85 93 93 89 87 87 96
127 133 139 134 148 151 150 152 166 154 146 152 168 163 160 160 166 167 174 166 169 174 171 175 178 183 195 192 197 192 194 187 194 191 180 182 190 187 187 189 188 183 177 178 178 177 173 175 182 183 177 167 169 170 168 153 149 158 154 153 152 154 142 133 148 132 140 115 115 108 103 100 108 108 100 99 85 87 88 75 86 77 71 63 68 67 61 61 67 71 80 78 84 94 95 97 100 104 104 115 117 121 132 140 144 142 143 143 144 140 136 139 141 140 141 142 138 141 151 152 152 152 158 163 159 155 152 150 155 138 139 133 133 135 123 130 132 132 133 126 128 128 133 133 131 132 120 127 122 114 107 111 106 94 86 100 99 99 99 100 105 108 115 118 115 121 121 122 120 112 114 114 118 120 116 117 121 126 124 118 119 117 111 113 112 117 115 118 120 124 126 113 115 120 122 124 129 128 130 128 128 132 125 128 136 134 139 138 142 152 146 153 160 158 163 162 164 164 164 165 163 154 153 150 136 144 132 125 115 118 116 112 115 107 96 93 91 91 92 90 90 91 85 83 85 87 89 91 89 88 91 90 89 87 85 97
117 132 128 138 135 141 147 152 159 160 155 152 154 170 162 164 166 166 166 159 170 173 181 181 174 174 183 181 185 193 195 199 196 196 189 185 188 189 190 184 182 180 177 177 181 182 175 175 181 183 183 172 171 173 166 158 159 154 155 155 156 156 156 131 144 140 134 146 122 105 112 103 99 112 93 106 84 86 83 82 79 83 80 74 74 70 71 68 69 75 77 78 84 95 98 103 105 105 111 117 122 134 138 143 143 144 145 152 155 154 158 156 160 158 153 149 155 155 152 151 156 153 154 153 147 154 153 152 157 162 141 140 128 132 133 119 133 135 138 135 134 130 135 138 138 136 135 126 134 131 119 104 110 114 100 92 87 90 94 104 107 112 115 119 125 127 126 119 114 114 107 108 109 116 116 121 129 130 129 126 119 118 122 117 112 112 115 119 122 125 130 125 113 122 126 121 124 135 131 135 130 131 123 123 136 138 143 144 143 150 149 155 153 166 156 158 155 159 162 153 154 148 155 151 137 141 128 120 124 115 111 110 110 100 97 94 92 87 90 87 90 91 87 89 86 86 86 91 91 88 90 91 92 91 93 96
112 120 134 133 128 138 141 153 145 164 153 156 154 161 175 171 165 174 169 162 166 173 179 184 183 174 175 183 173 179 189 195 187 198 196 188 181 185 181 186 181 177 179 178 183 179 180 177 181 184 188 173 175 173 168 158 169 157 163 164 155 158 156 151 133 146 138 129 139 130 102 116 108 105 107 93 100 85 90 86 80 80 76 74 72 75 74 77 81 82 76 80 87 98 108 107 111 105 112 123 133 142 142 152 151 146 148 152 154 158 160 158 161 167 170 169 153 159 164 163 159 160 155 152 156 146 154 156 160 163 162 152 140 135 135 134 128 126 134 133 137 133 132 143 145 142 141 132 137 134 126 135 121 116 111 106 102 99 103 104 111 111 119 129 130 126 124 121 116 109 110 108 107 113 118 119 123 124 126 133 131 129 115 121 115 111 116 120 122 119 125 126 127 115 121 119 123 126 129 133 129 132 129 125 137 140 142 149 147 148 147 146 163 157 168 156 157 155 164 156 151 148 151 145 143 140 127 118 127 114 107 111 102 95 96 90 85 85 86 88 92 92 91 88 84 84 87 95 89 90 89 94 96 92 97 95
114 111 122 124 136 134 136 150 150 148 152 154 153 155 153 164 168 170 177 170 168 175 178 186 184 183 177 177 182 180 183 189 187 185 186 189 187 183 181 178 176 173 172 175 183 181 186 184 182 179 180 170 169 169 167 165 168 168 154 165 169 155 157 152 142 147 150 139 131 138 131 111 114 108 106 100 91 98 88 93 87 87 83 82 78 80 85 83 83 82 83 85 95 104 107 109 109 111 122 132 151 151 157 156 155 153 157 164 165 171 167 169 171 171 168 175 170 157 167 169 171 172 163 155 154 159 163 160 164 164 165 165 166 139 131 140 141 138 132 131 126 130 134 139 134 135 133 126 120 133 132 119 123 128 123 108 111 109 115 118 115 118 122 128 127 122 124 128 130 124 125 120 115 114 115 118 123 122 130 126 132 133 129 118 115 119 122 127 127 124 124 129 125 118 120 113 116 126 132 128 131 133 133 125 139 141 143 146 147 150 144 143 148 159 160 163 161 159 162 159 152 146 146 139 140 137 129 115 128 115 105 111 94 95 92 86 80 84 85 95 95 92 91 92 89 84 90 96 97 91 90 93 99 95 95 93
107 118 115 123 136 130 138 154 151 150 148 151 153 154 155 159 162 169 165 163 172 173 173 175 180 183 180 179 182 176 193 176 178 187 182 175 180 178 180 181 186 183 176 174 176 177 179 179 184 180 180 180 168 163 155 167 165 166 166 161 162 161 159 162 142 140 146 156 134 121 136 120 116 118 105 105 100 94 94 81 88 87 82 82 88 81 81 81 82 84 87 92 101 109 104 108 113 121 130 144 155 157 160 160 162 164 161 164 169 170 177 168 170 172 165 166 168 161 165 168 169 175 169 158 161 152 164 163 168 162 160 161 161 162 147 139 140 146 146 145 142 137 143 145 143 139 134 145 140 123 126 128 121 121 128 122 116 116 124 121 119 124 125 129 129 129 124 122 122 122 117 120 114 114 116 116 119 126 126 131 136 132 131 122 120 124 127 129 129 125 124 127 128 125 117 120 116 118 127 126 124 129 139 130 144 143 144 145 149 159 152 145 142 145 153 155 157 157 148 146 141 140 142 147 144 135 125 113 124 115 104 106 94 89 87 87 76 78 87 93 99 92 91 89 86 91 90 94 91 94 93 90 101 99 96 94
99 112 117 122 133 135 136 151 151 155 149 157 162 154 156 156 158 172 168 161 162 171 167 164 169 168 171 179 176 178 189 187 180 184 185 177 173 179 182 182 183 185 189 188 189 183 181 184 189 184 181 173 183 167 163 164 167 166 163 167 158 153 152 157 157 146 139 141 147 127 137 120 125 111 118 111 106 103 98 89 87 88 89 74 71 79 84 85 89 89 93 101 106 110 113 112 125 130 140 147 161 157 165 168 165 159 156 155 165 169 177 171 172 170 171 173 169 169 172 171 170 166 163 154 154 154 162 171 171 169 169 169 162 161 171 147 149 150 140 148 152 148 147 148 147 144 143 138 142 140 133 132 128 116 123 128 118 121 124 120 122 126 125 131 132 135 137 143 139 134 129 125 133 122 120 113 119 126 128 129 133 133 127 122 118 123 127 130 134 127 129 128 126 126 125 126 127 124 119 128 125 128 131 143 140 150 146 147 142 151 150 149 146 143 148 148 145 141 142 142 142 137 138 140 137 130 123 120 118 110 109 99 99 85 85 85 78 77 86 88 93 96 92 92 91 89 91 91 91 91 96 98 98 100 106 96
102 112 119 122 131 133 138 146 150 164 150 160 160 158 157 157 154 160 165 169 166 170 172 161 165 166 163 169 174 178 182 190 180 187 186 185 186 186 188 189 180 186 192 185 191 187 184 181 188 183 179 178 175 175 171 169 171 173 170 168 166 160 147 152 161 147 139 141 150 132 134 134 118 124 112 113 111 112 109 109 94 88 94 94 91 86 87 89 91 95 96 100 109 112 114 122 134 138 142 151 160 158 164 162 160 164 164 165 163 166 176 179 183 178 176 171 169 169 176 179 178 174 167 163 148 154 152 156 163 167 168 158 166 153 164 155 156 147 145 145 144 148 149 152 152 153 145 146 143 151 140 141 141 129 116 120 121 124 120 124 123 130 133 130 134 136 135 134 139 145 134 126 125 135 120 122 118 118 127 127 129 132 128 122 119 122 132 132 132 134 130 131 128 126 123 119 125 123 124 126 130 126 129 138 142 149 158 148 147 146 146 149 151 145 142 153 153 153 149 145 144 143 139 130 124 122 120 117 117 106 106 96 95 87 83 86 84 82 84 86 87 90 93 90 94 89 88 93 91 90 95 105 103 99 103 98
103 112 119 124 133 134 137 148 151 165 160 156 161 163 160 164 160 161 159 170 169 166 166 167 160 162 161 162 170 183 172 188 181 182 179 176 176 175 172 183 190 186 196 195 187 183 179 184 173 194 188 180 172 174 175 173 173 170 175 179 177 167 149 146 162 159 147 140 145 140 124 144 127 119 120 121 114 105 113 111 115 112 101 102 103 99 100 101 104 100 99 109 114 117 125 131 137 138 144 155 155 167 173 168 168 162 163 168 171 175 179 185 187 178 161 169 166 173 175 180 181 181 178 162 170 152 164 165 160 164 167 164 153 147 154 147 154 161 159 155 151 149 152 160 156 151 158 150 147 147 142 142 143 139 128 126 122 119 126 124 122 129 136 136 138 138 140 139 142 149 145 134 122 131 122 114 122 122 125 122 121 124 130 121 121 123 121 129 125 129 126 125 125 125 125 126 125 121 130 125 126 126 121 130 141 132 138 160 149 147 147 133 138 142 144 143 143 149 151 146 143 140 133 131 125 117 115 116 113 101 98 99 93 86 81 83 87 88 90 89 93 94 95 91 90 91 87 92 93 87 90 97 106 110 111 107
112 118 123 133 132 133 140 146 148 162 156 156 163 162 161 160 164 165 158 167 170 164 167 167 161 161 166 163 167 184 180 187 180 178 178 179 181 178 173 171 172 173 174 178 175 170 173 181 190 180 188 183 177 166 175 176 181 173 171 175 177 181 165 146 148 157 151 148 143 142 136 130 143 130 120 124 120 115 101 109 103 111 114 105 100 104 103 102 101 102 107 110 115 122 125 138 139 143 149 158 163 171 172 170 168 176 176 182 176 175 176 180 181 189 192 171 175 165 178 187 187 186 181 175 162 166 168 177 178 169 167 176 169 148 151 145 143 150 161 165 168 170 163 162 159 149 150 156 151 137 143 144 151 151 136 135 132 129 116 119 122 134 136 145 146 142 148 146 144 149 156 150 131 130 132 124 119 126 120 126 122 123 128 118 118 121 121 119 130 131 131 133 127 124 123 121 122 127 126 127 127 129 123 122 126 138 133 130 144 145 149 152 144 149 145 139 137 136 132 132 135 132 127 118 117 119 113 116 105 98 99 100 88 91 85 88 91 93 90 91 95 96 96 91 86 83 89 92 92 89 88 91 92 100 105 103
116 122 130 140 141 140 139 140 138 154 157 160 160 159 165 160 164 165 159 166 161 159 154 157 161 170 175 169 168 178 184 187 180 179 179 174 178 177 168 176 174 169 170 171 174 169 170 177 185 186 178 182 182 175 173 180 176 180 179 176 180 179 164 165 146 150 146 145 141 143 136 134 137 135 131 120 127 122 118 114 112 107 106 112 111 110 112 113 114 111 110 115 121 129 126 139 140 146 155 158 177 177 181 181 177 169 173 180 181 181 187 187 188 184 188 179 184 176 173 184 189 187 180 175 177 168 169 177 176 166 161 161 177 170 158 161 162 165 166 166 165 160 169 167 170 152 147 135 159 141 136 142 156 152 147 137 127 137 130 123 128 137 139 139 142 148 152 141 144 145 151 146 144 132 131 123 122 127 122 122 118 121 125 121 115 117 119 121 118 125 130 130 125 121 115 115 118 114 118 123 122 119 120 127 129 124 127 129 130 138 140 140 143 139 134 132 132 127 129 126 124 121 120 118 120 122 118 114 106 98 101 94 92 86 95 94 98 100 102 95 97 98 99 96 89 87 87 88 90 88 87 85 89 89 92 93
117 125 134 148 149 141 143 139 140 148 159 159 161 162 161 162 162 156 161 163 166 170 160 157 159 168 177 178 177 173 185 185 182 183 175 178 176 175 176 179 184 178 176 179 175 172 166 165 181 188 191 184 184 178 181 178 185 185 183 185 179 185 176 164 162 152 150 144 136 142 137 135 133 134 130 123 132 122 122 124 119 115 115 110 113 112 114 115 117 116 118 119 129 132 127 139 142 149 152 166 181 184 179 183 178 176 176 185 188 189 189 196 196 190 192 180 180 182 175 181 188 195 189 188 183 178 179 188 194 186 173 166 166 181 175 172 169 162 167 173 175 170 161 160 168 173 157 153 142 150 141 138 152 150 151 145 142 127 128 127 132 139 142 141 136 148 151 145 143 143 144 145 146 142 136 130 122 126 126 120 117 115 120 123 117 110 114 115 116 117 116 117 119 121 118 118 119 117 115 119 120 116 112 115 120 128 122 118 124 133 132 139 140 133 129 128 129 130 128 122 115 112 108 112 115 112 115 110 109 100 102 102 94 91 92 91 97 99 103 102 97 99 103 103 100 99 93 90 89 89 87 92 92 88 91 91
132 133 140 149 153 147 142 141 144 145 151 160 164 165 164 164 164 158 165 165 165 173 172 162 161 165 175 174 180 189 178 192 181 178 174 168 173 174 177 175 181 188 183 186 179 170 170 167 176 186 195 195 184 178 182 177 180 184 178 184 180 180 178 168 163 164 151 147 136 140 136 136 135 135 133 120 131 128 122 123 129 124 125 119 126 121 114 115 121 125 124 129 132 135 131 142 145 152 158 161 184 186 180 183 177 176 178 181 193 199 191 201 197 196 187 192 179 186 183 186 187 185 189 189 194 190 188 187 193 192 186 174 173 170 177 177 176 171 166 170 171 178 185 172 170 167 161 153 161 145 138 145 143 152 151 142 141 145 134 122 129 135 141 138 139 146 147 144 137 142 143 144 142 138 133 132 125 126 126 118 122 113 115 120 119 109 112 115 110 114 112 119 124 120 122 120 114 115 112 119 125 120 112 115 113 119 119 126 123 123 124 122 120 119 126 128 126 123 116 107 106 110 105 105 108 109 113 107 111 105 102 105 105 100 91 92 100 104 109 108 111 108 104 101 100 103 98 89 87 92 84 86 89 92 90 90
133 134 143 146 148 153 149 147 145 142 147 156 159 162 165 168 169 166 172 172 170 172 175 163 161 164 177 170 174 180 179 169 182 184 175 169 173 168 165 177 170 173 180 179 181 173 173 171 174 186 189 190 182 181 180 183 183 178 177 175 173 172 171 169 161 160 155 147 139 139 134 134 132 135 133 125 125 128 119 123 125 123 124 120 121 120 119 124 126 121 119 131 139 136 136 149 149 163 163 162 189 181 188 183 181 174 184 187 179 201 202 195 200 198 189 189 186 190 187 190 187 188 190 192 195 195 189 191 188 193 194 180 175 170 177 181 185 180 178 162 166 170 182 182 175 178 169 159 156 160 141 133 147 143 146 143 141 137 139 128 126 130 138 137 140 141 146 148 140 140 137 137 137 128 128 128 127 129 131 120 119 120 116 120 122 117 110 113 112 113 114 116 116 120 122 119 111 112 114 114 118 122 118 113 110 110 110 113 121 118 116 120 121 122 120 119 118 113 112 112 109 105 103 105 111 107 112 113 111 110 107 111 102 103 107 105 99 104 99 96 108 107 107 104 98 94 101 96 83 89 85 82 81 83 88 92
135 143 142 142 141 144 149 149 145 140 145 152 157 160 169 163 170 169 169 173 165 175 170 167 162 157 165 175 171 179 181 178 182 185 181 179 176 177 174 171 174 173 175 176 183 180 173 170 175 188 182 186 186 181 179 181 180 180 184 174 171 170 169 170 166 153 150 144 141 139 141 136 130 127 128 128 121 129 132 126 123 126 121 119 117 121 126 128 131 121 120 132 141 139 140 150 151 157 166 161 183 184 195 191 189 181 183 184 186 183 191 190 201 194 187 187 189 191 192 188 183 181 185 189 193 190 187 190 183 187 193 186 180 178 183 186 189 189 185 178 163 167 178 182 180 180 178 173 154 160 155 135 147 151 147 147 142 141 143 130 131 130 136 134 140 140 141 142 135 137 137 136 134 128 125 126 124 127 127 124 122 122 119 123 125 122 116 118 117 115 113 116 117 114 120 120 119 114 115 119 118 116 115 112 109 105 104 101 108 110 110 105 110 115 114 116 111 107 109 107 106 108 107 102 110 110 115 113 114 110 106 104 107 107 108 109 110 106 109 105 99 100 107 108 102 101 90 94 88 83 88 86 83 87 85 94
137 139 144 146 142 144 146 150 145 140 147 150 156 161 176 168 167 178 171 170 164 173 167 161 162 153 155 161 159 159 169 180 174 173 180 177 179 178 177 178 178 175 171 166 171 175 167 173 181 196 184 184 185 180 171 169 174 168 170 170 171 167 165 167 165 151 145 139 141 138 139 135 126 125 128 124 118 117 121 129 126 125 125 126 124 123 127 128 130 130 131 137 146 147 147 151 153 155 167 160 172 190 197 194 186 183 176 175 180 184 190 195 198 204 191 186 186 183 190 198 191 185 182 193 193 195 187 190 176 182 180 183 185 184 191 195 188 193 190 184 172 166 173 177 179 175 177 170 169 169 153 147 150 160 153 145 140 139 145 135 132 128 136 137 138 141 139 138 134 133 135 134 133 134 126 128 123 124 122 125 123 118 119 124 129 123 124 123 115 111 112 108 104 102 96 105 111 116 115 112 116 114 108 108 106 103 105 102 107 112 113 106 100 106 110 109 106 102 100 101 101 101 104 103 109 112 115 113 109 107 117 116 118 118 115 114 110 111 107 99 95 101 95 101 106 106 101 90 92 79 85 89 87 89 88 94
130 139 146 153 152 152 157 153 149 147 154 156 154 157 160 172 165 178 172 168 161 166 168 154 157 154 156 163 171 162 162 165 169 171 168 165 162 171 177 171 169 175 178 170 173 174 173 167 182 189 185 188 180 174 173 167 176 166 157 166 165 164 161 168 163 152 141 140 139 141 131 133 121 122 119 118 118 115 120 122 125 124 129 126 126 126 123 125 129 125 134 142 146 143 150 156 153 156 176 166 171 187 191 190 188 187 186 179 184 182 186 195 197 198 188 183 181 179 181 182 190 187 188 194 192 198 190 190 187 187 189 176 177 171 175 189 199 188 185 178 177 167 169 176 179 180 174 174 178 173 156 153 148 151 147 147 138 136 136 132 137 136 136 138 138 140 144 133 129 130 138 135 133 130 130 128 129 128 129 127 126 120 117 116 119 121 116 112 114 111 103 97 98 100 106 102 105 108 109 113 114 109 109 111 110 108 109 108 107 107 108 108 102 101 103 103 100 99 99 99 100 104 106 101 109 109 113 116 113 108 111 116 121 120 122 124 126 124 127 123 118 104 111 106 105 104 106 102 91 90 79 84 91 92 89 94
139 141 148 156 152 151 159 155 148 148 151 156 162 163 156 156 165 174 173 170 162 162 170 155 159 152 160 160 164 168 165 166 172 171 168 164 158 163 169 177 177 169 166 178 175 172 165 173 177 190 187 189 187 179 168 173 173 178 165 163 166 158 161 163 154 154 136 139 138 140 128 133 122 124 113 114 116 115 118 120 119 124 124 129 126 128 125 126 127 125 133 143 147 137 147 156 156 157 177 176 176 187 190 188 190 186 192 183 185 195 190 190 190 191 190 185 182 171 174 184 189 181 182 186 193 193 197 196 195 192 185 175 183 183 175 180 183 179 182 180 179 176 180 180 180 179 176 174 171 175 165 152 155 151 146 146 138 135 138 135 137 135 134 136 144 142 137 139 127 124 125 125 123 126 127 123 129 129 121 117 115 112 106 112 115 113 111 106 99 96 94 90 88 90 93 96 100 101 105 102 100 102 104 106 105 105 107 108 106 100 99 102 108 103 99 101 99 99 96 93 97 102 107 106 110 115 119 122 117 110 115 119 116 124 123 122 122 118 119 122 114 116 107 97 96 99 106 107 98 99 88 80 90 93 91 90
145 148 147 148 151 155 157 157 149 151 154 148 149 160 163 152 158 157 177 178 176 168 173 159 158 148 147 149 154 157 158 158 158 158 161 159 156 150 159 169 168 173 171 173 180 174 179 166 173 196 184 187 182 181 187 177 181 168 175 171 171 159 162 160 152 151 146 138 139 137 130 130 120 121 113 111 114 114 119 116 119 124 119 123 125 128 125 127 126 130 133 143 146 143 150 154 157 161 172 181 176 181 181 186 185 184 190 189 190 188 194 188 188 183 178 178 174 171 162 180 181 188 180 187 184 188 190 191 190 189 186 178 176 185 185 181 184 181 180 178 176 178 178 187 185 183 175 172 170 170 160 147 157 152 153 142 136 132 133 138 137 138 141 136 138 140 136 130 123 116 119 114 112 118 124 123 120 122 121 119 113 106 106 103 104 103 101 98 100 97 96 91 92 91 94 94 95 99 103 104 107 103 101 101 98 97 96 99 100 101 97 101 103 103 106 103 99 105 102 96 96 101 106 108 107 113 124 133 120 117 112 121 120 122 126 126 124 121 120 121 123 119 118 123 123 116 105 103 107 88 105 87 84 93 95 97
158 152 150 148 154 153 159 156 150 146 150 152 146 159 164 160 157 154 167 172 172 174 169 167 161 154 149 148 147 152 149 152 151 150 155 162 159 159 152 151 155 157 164 168 173 178 178 175 173 190 192 186 190 172 179 186 181 171 173 177 166 162 158 157 152 150 152 143 138 138 133 132 115 122 115 110 118 122 118 117 120 124 122 121 125 127 128 135 135 130 132 152 149 143 150 150 151 163 175 184 180 182 175 177 180 182 182 181 180 186 185 188 187 183 182 178 178 174 173 170 177 192 184 188 183 181 182 180 181 182 183 172 173 172 179 183 183 177 179 176 168 177 177 175 181 176 176 171 168 168 161 148 152 147 152 142 138 132 137 140 139 139 141 143 140 131 132 125 118 117 118 111 115 118 118 113 111 109 110 110 109 108 102 97 100 99 95 96 95 94 97 99 99 95 96 96 96 92 91 96 103 107 100 95 97 96 96 92 96 97 98 103 105 102 100 97 98 101 106 109 97 105 108 113 108 116 121 127 120 119 117 121 125 123 124 125 125 120 125 128 129 129 124 114 124 125 110 114 107 104 92 105 94 87 89 92
150 151 148 148 151 156 161 158 153 145 143 149 155 159 160 168 156 158 159 166 167 166 163 161 158 160 156 145 147 155 143 153 148 146 141 148 153 155 157 150 152 145 154 161 163 159 174 180 180 192 199 190 182 185 177 186 179 174 168 173 164 163 156 157 153 151 146 152 134 141 133 134 119 126 112 111 114 117 115 112 115 122 122 127 131 130 133 136 137 130 137 152 152 151 149 151 154 158 180 183 186 177 172 176 176 176 179 175 182 180 187 179 178 175 182 183 174 176 180 178 180 184 190 192 191 178 173 182 180 180 177 176 178 171 169 170 173 174 169 176 171 176 188 177 180 179 178 169 169 167 160 153 147 147 151 147 138 138 135 143 144 142 148 147 146 130 136 129 118 124 121 115 111 111 109 108 111 109 108 108 101 99 100 98 93 93 95 93 94 94 92 94 102 101 102 101 103 97 96 95 98 102 100 98 92 95 89 86 83 87 92 95 103 103 101 99 91 92 97 101 99 106 110 117 112 106 119 126 123 118 118 115 118 118 120 122 122 118 125 129 131 134 133 133 117 121 131 110 103 111 97 85 101 99 102 94
143 148 147 149 152 164 163 155 154 149 146 145 144 157 164 166 156 153 154 161 163 164 163 158 155 159 162 156 144 156 151 151 153 149 141 143 144 147 148 155 154 147 151 147 167 158 167 181 186 193 202 200 191 184 178 186 175 182 163 173 159 163 153 152 151 156 154 149 137 135 140 135 127 120 129 120 114 114 117 122 128 128 129 128 130 132 138 135 131 136 142 149 162 159 153 152 156 162 178 181 185 173 171 168 169 173 171 167 174 174 179 183 173 176 175 179 179 178 182 176 180 185 181 177 181 181 176 179 178 174 182 178 175 183 177 174 170 174 167 169 170 166 179 185 181 171 172 171 164 164 157 153 147 143 150 143 143 142 138 141 146 145 147 147 143 137 137 130 114 122 114 107 107 103 106 104 109 108 105 104 98 92 96 99 91 91 95 97 88 92 90 90 96 95 97 97 97 105 101 100 95 103 103 101 95 90 87 88 88 84 81 78 81 90 99 99 96 91 92 103 95 98 109 120 115 104 107 116 115 110 114 118 121 117 121 121 121 125 125 125 132 141 140 141 142 121 116 128 113 104 106 100 89 104 96 101
140 140 151 143 146 151 162 161 156 150 144 144 143 146 162 166 164 161 160 161 164 162 157 162 165 161 162 166 156 153 151 154 149 144 137 143 139 143 155 147 157 150 151 148 156 163 163 183 180 183 202 200 200 197 188 178 175 181 165 163 155 158 158 161 153 151 144 164 133 130 136 132 133 124 122 130 121 122 126 131 135 129 128 132 130 137 143 134 131 134 147 154 162 160 153 161 165 168 175 179 182 175 167 172 176 171 176 175 173 175 176 183 180 176 168 177 182 176 177 174 169 175 184 183 181 185 180 174 168 165 163 168 167 170 172 179 174 175 173 171 173 168 169 173 182 175 164 165 161 159 160 150 145 141 147 137 140 136 134 137 135 137 140 146 143 136 140 126 114 120 107 106 106 98 105 102 106 104 99 101 101 95 94 94 94 89 94 94 91 90 89 91 99 95 90 90 96 96 97 96 100 98 100 100 97 93 90 89 83 80 83 86 82 81 80 81 83 83 86 86 102 101 102 106 120 110 109 117 115 116 113 118 124 121 121 120 122 128 127 127 138 141 137 144 144 138 126 114 122 116 112 108 107 94 111 97
146 139 154 150 147 148 155 154 156 149 144 145 140 144 154 163 162 166 162 159 156 160 158 159 169 166 160 158 156 155 155 151 152 153 141 142 142 139 139 156 152 151 155 150 161 160 159 177 186 189 190 195 196 197 194 185 172 175 178 162 161 157 160 157 157 157 151 159 146 134 126 138 136 129 129 135 133 129 126 128 137 142 143 140 140 138 137 136 137 136 148 158 164 166 164 160 159 169 175 183 178 179 174 168 175 172 177 181 179 176 177 176 177 175 171 172 176 175 173 174 179 175 182 190 186 178 175 173 173 166 161 161 161 166 174 166 172 173 176 178 177 171 171 161 167 167 167 165 165 158 156 146 143 138 140 134 132 135 130 133 141 135 138 135 139 139 139 123 119 118 109 108 108 103 105 109 109 107 104 105 100 100 97 94 94 91 94 99 94 87 92 94 93 93 91 86 91 86 87 90 91 96 94 96 96 92 86 82 80 81 83 86 86 82 84 86 87 83 82 92 88 95 102 96 107 117 106 103 112 108 115 119 124 124 123 122 128 125 134 133 144 147 138 144 143 141 136 128 124 120 113 111 112 106 104 115
143 144 153 156 151 146 147 152 153 138 135 140 148 141 152 164 156 163 161 155 158 159 158 159 155 155 157 152 146 145 147 152 153 151 151 144 147 144 145 142 152 161 155 152 164 167 166 171 182 177 181 188 195 193 188 181 175 174 174 163 164 158 159 164 163 163 151 156 154 144 128 128 133 139 130 131 135 130 130 131 132 141 148 147 139 136 141 136 146 142 152 160 168 168 166 164 173 177 178 180 168 176 176 173 176 169 167 180 176 169 176 178 174 171 175 172 174 166 161 166 170 169 173 181 183 176 175 171 173 169 165 165 162 165 173 166 174 172 174 175 180 174 173 166 168 166 167 164 166 157 151 148 140 141 142 133 132 131 130 131 139 134 137 138 132 136 138 125 121 123 113 113 105 104 106 106 109 110 107 107 103 105 108 101 99 99 96 94 96 87 88 96 93 95 90 90 88 84 84 81 85 92 98 93 89 85 84 80 74 72 72 74 72 76 82 83 87 84 81 83 92 88 102 101 92 104 105 112 110 109 110 116 125 121 119 121 131 131 132 134 143 145 147 143 148 139 129 132 130 127 121 111 121 117 102 102
145 148 151 155 155 159 149 148 146 144 135 137 144 141 150 156 159 157 156 151 155 153 148 149 153 145 142 142 141 142 143 151 147 143 143 139 139 142 142 149 144 163 157 152 159 173 175 173 178 177 186 185 178 199 187 191 184 181 174 165 163 154 156 160 158 159 154 147 143 151 142 137 132 128 134 140 144 141 139 140 134 131 135 139 144 141 135 142 150 137 148 159 168 171 174 170 177 178 182 174 166 165 169 166 170 172 170 164 178 177 182 177 169 178 174 175 169 174 159 164 164 167 169 171 173 172 169 165 159 158 155 156 158 164 179 175 170 177 164 166 172 173 176 166 169 167 167 165 165 160 156 146 142 142 142 138 134 134 137 135 138 135 134 136 129 134 131 122 124 122 113 116 116 111 113 114 117 115 109 115 109 107 110 113 105 107 101 98 91 96 90 91 97 94 93 95 90 88 83 85 85 87 87 89 87 85 81 72 72 73 71 71 71 72 75 75 80 90 84 79 88 83 92 104 94 95 98 103 116 114 113 117 122 126 123 116 125 137 131 130 137 138 138 140 143 146 132 134 131 136 132 111 106 115 115 108
138 149 146 150 153 152 161 151 143 140 141 142 139 143 149 147 150 156 155 154 151 150 153 149 146 147 142 136 135 135 131 131 138 144 141 139 136 136 138 145 152 147 159 151 153 162 187 181 183 180 179 185 194 190 192 185 182 182 182 163 153 156 153 159 160 164 157 153 139 145 145 145 143 141 136 142 151 152 146 146 146 142 142 145 149 147 138 142 149 143 152 157 168 179 181 173 181 180 187 183 186 181 177 177 177 181 179 160 167 177 185 181 178 172 175 173 175 170 169 165 168 169 169 165 167 166 161 160 158 161 158 158 155 156 166 172 180 177 185 176 174 175 176 173 172 166 164 162 161 160 158 153 145 148 143 138 136 130 136 137 141 144 142 135 133 128 121 122 127 124 116 118 119 112 114 117 119 120 114 112 114 105 107 110 108 108 106 100 97 94 99 97 98 96 95 99 92 88 87 88 84 84 83 80 81 80 74 71 70 68 64 62 64 63 65 69 70 79 90 85 87 89 87 95 106 104 96 91 106 117 116 122 121 125 126 122 121 129 133 128 132 140 137 139 142 150 148 134 127 128 132 132 117 109 112 108
139 143 147 142 150 150 160 149 148 137 133 141 145 150 150 145 143 142 142 142 143 142 140 141 140 139 132 129 131 132 134 137 141 132 134 135 135 131 134 131 149 163 158 152 146 145 166 186 192 195 178 179 185 189 186 184 181 181 178 166 167 148 148 149 155 157 158 154 152 137 133 131 137 144 146 147 150 151 155 154 157 157 151 148 142 152 149 139 143 143 154 164 171 187 188 184 181 187 195 187 188 192 186 183 179 172 188 179 170 182 177 185 183 181 179 177 181 184 173 173 178 173 167 164 169 166 159 157 158 159 155 156 155 159 166 160 153 170 188 180 180 180 173 176 175 170 165 161 164 166 160 151 151 146 140 133 130 134 134 140 139 146 142 131 129 122 121 121 120 120 114 115 122 118 116 119 120 113 115 114 115 112 102 108 106 107 104 99 96 102 99 100 105 103 101 92 92 90 90 93 85 82 78 79 77 73 67 71 68 64 66 62 64 62 59 63 68 77 81 88 92 86 94 89 96 105 111 99 92 105 118 123 120 123 130 125 126 129 127 127 135 137 138 142 138 151 148 146 140 132 137 125 119 116 114 118
141 137 143 142 142 155 147 154 151 145 142 140 139 142 150 150 144 141 141 137 142 141 137 138 136 137 125 123 125 126 125 121 128 139 141 137 137 134 135 140 130 144 161 156 151 146 155 173 168 190 189 180 181 178 176 175 175 175 175 174 163 161 162 135 147 155 153 151 147 149 154 152 142 137 139 145 147 155 157 154 156 160 154 158 153 146 151 151 148 154 165 170 177 179 189 185 186 189 188 186 193 199 202 199 198 189 172 182 176 180 185 181 182 177 184 178 179 181 177 180 180 184 171 168 170 159 155 153 158 154 146 146 147 158 159 169 161 155 158 179 173 165 161 157 162 165 163 158 161 157 143 140 145 135 132 132 132 131 133 139 140 140 133 128 123 119 116 123 120 121 115 115 119 118 118 120 118 114 112 112 118 115 107 107 102 109 105 102 96 100 102 102 104 106 99 100 90 91 88 92 88 84 82 78 78 70 69 72 69 60 66 65 66 66 60 58 64 72 78 91 91 89 91 92 87 91 99 107 102 98 104 120 122 115 124 123 121 126 135 131 134 138 136 142 139 147 149 153 152 145 132 141 129 115 115 117
140 145 144 140 134 141 147 158 151 153 150 145 134 136 145 151 148 145 145 142 147 148 140 133 136 134 127 127 121 122 126 124 124 140 138 136 132 127 129 131 134 133 148 161 147 145 150 165 174 156 187 176 171 184 175 170 169 173 170 172 174 162 157 160 138 150 159 160 154 153 147 144 152 152 149 150 150 158 164 163 164 155 149 145 147 150 144 145 151 159 170 173 181 182 184 190 187 192 190 190 194 202 199 197 201 199 177 173 180 168 184 183 186 185 191 186 181 189 179 176 175 180 175 174 171 156 153 158 151 142 144 135 141 147 153 157 164 160 154 162 161 166 168 162 161 163 162 159 147 140 141 143 132 125 123 129 125 125 128 134 134 137 128 120 117 114 119 117 117 118 110 109 109 114 114 115 122 114 110 110 116 116 105 102 103 107 105 103 97 99 104 99 100 102 106 98 97 90 86 94 87 88 84 83 78 79 68 74 69 61 64 64 68 65 60 61 61 68 76 89 90 82 84 89 96 86 90 94 105 97 102 107 120 127 115 127 119 117 129 142 137 139 136 139 138 146 150 146 150 148 142 129 141 120 122 109
149 143 147 143 141 141 149 151 152 157 155 158 141 137 133 147 143 146 143 142 149 147 141 135 136 127 123 123 120 124 128 125 123 125 131 132 130 128 129 137 141 133 136 151 152 145 147 150 168 173 150 183 177 172 184 173 171 175 171 175 176 167 166 152 150 152 154 163 158 157 156 152 139 142 150 146 150 157 160 166 163 163 157 154 149 144 142 144 151 154 166 175 173 181 184 191 189 188 188 193 200 195 194 195 200 198 196 183 178 168 172 174 179 184 188 182 187 186 181 179 178 176 171 172 170 152 152 153 147 136 146 136 141 144 150 149 154 162 158 151 158 153 156 156 153 153 151 144 146 143 136 130 123 129 130 123 120 118 114 122 130 125 130 124 111 117 111 118 114 118 117 110 107 112 111 112 110 114 114 107 113 119 110 104 103 103 107 103 98 97 98 98 99 102 101 99 95 98 89 85 91 88 81 84 86 80 81 68 71 67 64 67 69 69 67 60 63 68 76 81 88 86 81 85 89 91 85 87 96 97 97 100 123 124 114 122 126 119 121 135 144 139 142 136 135 142 151 149 150 152 152 146 132 147 114 120
148 141 140 144 135 143 149 154 148 156 160 158 152 141 136 146 149 142 141 140 140 141 136 140 137 128 125 118 117 120 123 125 120 120 131 131 131 136 128 134 147 139 135 154 142 140 141 148 141 172 162 161 175 175 173 182 172 178 177 179 179 177 171 154 153 154 155 159 166 164 164 158 157 142 150 146 141 152 158 163 163 166 161 161 159 155 153 158 158 159 165 171 175 174 177 183 190 185 187 190 194 194 195 193 199 192 199 179 179 175 168 181 167 170 177 182 192 185 181 176 172 169 167 166 160 151 157 154 150 142 146 144 143 146 145 147 152 156 162 160 158 157 147 145 146 148 148 147 139 133 132 136 129 123 129 127 124 120 120 122 130 123 124 124 123 118 112 115 116 112 122 118 114 114 113 115 113 112 106 105 108 115 120 100 104 105 97 102 90 98 99 97 96 97 101 98 98 100 98 85 88 83 79 82 81 82 86 86 71 76 70 68 71 70 72 68 67 70 76 78 82 80 80 84 90 97 87 84 91 100 97 107 108 119 125 116 129 125 120 137 144 140 138 136 133 143 149 150 152 151 151 154 142 133 134 129
146 152 146 144 142 147 154 157 152 152 152 157 150 139 141 141 147 146 144 137 141 144 138 138 131 123 126 122 117 116 117 119 126 129 122 136 129 133 124 129 140 144 143 156 148 141 141 146 140 152 170 157 164 172 179 182 177 178 181 183 176 179 175 162 156 152 162 158 167 178 166 161 163 159 152 161 151 147 151 161 161 163 160 158 160 159 156 154 160 169 172 182 184 180 178 182 189 191 185 189 188 188 193 194 203 198 195 193 188 178 176 175 184 172 177 178 188 177 176 176 177 172 164 162 154 149 156 153 146 148 153 148 146 147 147 147 152 148 152 158 154 156 152 149 150 149 145 142 134 131 131 136 134 132 129 124 129 126 121 125 127 128 126 126 118 121 127 120 117 115 115 115 115 115 110 112 119 121 117 117 115 113 117 116 105 110 97 101 89 92 99 98 98 97 97 97 98 100 102 94 84 83 79 81 81 77 78 83 82 71 72 67 66 69 69 70 66 71 77 78 81 84 78 80 87 95 89 93 91 98 101 104 108 117 116 120 128 125 125 139 141 139 139 135 138 144 145 149 151 153 153 150 155 145 138 124
149 150 152 149 140 148 150 157 149 147 153 160 151 136 144 146 147 142 143 136 138 137 135 137 127 122 126 123 117 114 118 118 112 115 118 125 137 131 131 124 133 151 138 155 152 145 146 152 149 147 166 162 157 169 175 183 186 182 183 181 177 179 171 161 154 153 162 163 173 173 179 166 159 167 157 158 163 158 159 156 159 163 163 164 161 164 170 167 168 174 175 187 188 189 189 193 191 199 199 195 199 192 182 195 197 200 200 202 196 191 189 194 179 188 164 180 177 173 176 176 171 171 168 160 155 151 150 148 144 146 153 154 147 142 146 147 149 154 145 149 153 156 151 144 147 147 140 141 131 134 131 129 132 129 131 124 123 127 125 124 124 134 133 131 127 124 128 133 128 120 118 111 109 115 118 120 119 121 118 115 119 120 111 116 106 102 96 99 103 93 95 96 99 101 100 98 101 99 99 93 85 81 82 82 85 84 82 79 75 80 75 70 67 67 68 69 67 74 78 78 76 77 83 78 83 93 92 92 96 96 101 97 107 112 118 118 129 127 126 138 139 141 143 141 140 140 152 150 151 147 147 148 149 151 142 137
150 147 150 150 150 151 160 160 152 152 150 154 152 141 143 144 148 143 138 133 134 130 132 130 127 120 121 113 106 105 104 112 116 117 116 116 132 130 127 125 121 145 136 152 154 146 142 145 154 150 164 167 161 156 168 169 188 190 189 187 184 180 171 165 154 158 157 162 167 171 173 174 166 164 159 152 157 162 158 159 161 161 165 173 167 163 172 168 168 178 174 187 192 190 188 188 197 204 205 199 204 200 189 192 191 193 190 201 197 193 188 194 202 179 168 172 168 165 174 171 175 171 164 158 153 155 147 145 151 150 152 154 146 149 155 153 148 144 147 148 139 154 152 144 151 144 137 137 125 131 127 129 132 132 128 126 121 127 131 127 126 131 136 128 128 129 128 134 135 132 128 126 124 117 118 118 121 120 114 119 116 118 119 108 106 115 110 103 94 92 89 95 95 95 105 99 95 102 94 90 83 85 75 82 81 83 84 81 77 77 79 75 72 72 75 75 76 79 82 76 73 71 79 82 84 88 88 95 98 98 103 97 105 112 120 117 132 131 128 135 143 143 144 140 144 146 153 154 153 146 151 147 146 155 146 140
149 147 147 145 144 147 151 157 162 155 158 151 148 139 141 147 143 134 132 130 127 125 127 128 120 114 104 103 102 105 105 103 99 101 108 116 117 128 124 125 132 129 139 148 151 148 141 141 141 152 158 170 175 168 175 176 174 175 166 167 170 167 161 161 156 155 157 156 158 162 166 166 166 167 169 163 149 166 164 155 160 161 160 169 173 166 170 175 173 183 180 188 195 191 198 187 190 210 207 198 201 204 193 197 193 198 197 202 205 194 189 187 194 193 173 187 172 155 165 163 166 168 158 154 153 153 145 143 149 151 153 158 157 155 161 163 164 157 154 144 147 147 149 147 148 140 139 129 126 133 127 124 124 122 126 128 125 127 131 131 130 127 129 127 132 129 126 127 129 127 126 126 120 122 115 119 122 121 118 116 121 124 124 117 109 100 107 113 113 111 103 104 104 102 92 109 108 100 97 85 85 86 77 83 83 85 82 78 79 76 82 82 81 81 82 82 78 77 79 80 74 76 75 81 87 86 81 82 100 98 100 98 105 110 126 117 131 133 131 131 138 142 149 144 138 148 151 145 155 152 147 145 142 149 153 139
146 147 150 146 149 146 145 149 157 156 153 157 144 141 141 141 136 131 127 125 121 123 120 111 113 113 111 103 98 105 105 106 105 101 101 106 112 113 118 116 124 135 143 147 148 150 147 139 138 144 146 149 157 159 157 160 172 177 179 176 175 167 162 156 156 152 151 158 160 152 150 156 154 153 158 163 158 159 176 164 160 158 165 166 166 167 169 172 181 179 191 187 193 188 210 201 189 205 201 206 195 195 191 195 195 193 197 195 199 196 192 186 193 194 181 180 185 158 156 166 164 164 159 150 155 150 149 143 146 151 155 156 159 163 164 163 163 165 158 159 146 151 146 150 147 138 128 126 129 125 125 122 120 122 122 129 129 127 124 125 129 129 129 125 130 131 128 129 129 136 134 126 127 124 127 124 124 128 127 118 117 122 125 123 120 112 110 117 124 123 130 120 103 96 104 95 105 108 101 85 87 87 76 81 84 85 82 81 78 77 83 79 88 87 81 81 84 84 83 82 76 75 76 82 86 87 83 82 95 98 97 105 102 109 126 121 130 134 135 131 130 132 141 143 140 149 155 147 156 152 151 152 146 146 149 152
147 141 149 148 152 152 152 148 155 161 155 151 141 136 136 132 127 124 122 118 115 114 112 112 113 109 105 109 105 102 102 101 100 104 98 107 113 108 113 112 123 132 139 148 144 142 151 143 140 142 143 143 147 156 150 140 142 151 150 155 145 152 155 152 149 149 150 152 152 161 157 153 147 141 142 153 168 143 164 172 166 160 163 168 171 161 166 171 175 178 194 190 189 189 194 216 204 197 205 203 207 199 193 189 191 187 186 194 191 193 195 194 188 193 187 176 182 164 153 165 159 160 155 149 154 145 148 147 142 151 157 155 158 168 163 163 164 161 162 161 150 148 147 147 138 132 126 126 124 116 118 123 129 124 120 124 126 124 122 121 126 128 128 124 130 130 128 122 127 136 136 130 123 129 125 125 127 125 128 126 124 124 124 116 110 117 114 115 120 120 129 127 138 125 100 99 93 103 109 90 89 84 76 77 84 84 82 80 77 75 80 82 83 86 86 84 83 83 84 79 80 80 78 82 84 87 82 84 96 96 97 102 101 115 122 124 131 136 135 136 131 133 136 145 145 151 153 154 155 159 151 151 150 150 154 150
154 145 146 152 158 156 152 154 152 160 160 146 135 131 131 131 123 122 118 110 110 113 114 110 103 96 96 100 100 97 93 93 97 100 101 92 115 111 112 110 114 122 140 146 152 137 139 146 140 143 144 141 141 140 142 146 150 151 151 152 157 156 151 148 150 150 140 145 143 142 154 148 140 146 143 142 151 172 148 160 168 161 156 163 176 172 168 176 169 168 185 191 194 188 187 183 206 212 210 215 211 201 190 187 189 183 187 193 197 193 198 195 197 196 185 187 177 163 159 157 153 155 150 150 154 143 145 157 151 152 153 157 151 163 178 170 180 177 168 167 156 150 145 145 134 130 130 127 126 120 120 118 121 122 123 129 126 121 121 123 128 131 133 125 130 134 132 129 128 129 138 132 124 127 125 127 129 130 130 126 128 133 126 126 119 121 125 120 118 119 118 120 124 131 133 108 100 93 106 100 90 88 74 74 82 82 78 77 78 74 75 79 84 83 86 89 91 90 87 88 77 79 80 81 80 85 83 88 90 94 98 98 104 116 117 130 138 133 130 130 130 135 140 149 151 148 153 157 155 153 150 152 151 148 159 155
147 145 151 151 158 159 150 151 149 149 152 146 133 129 132 127 121 119 118 112 115 109 103 98 95 92 93 97 95 95 93 90 93 93 94 98 96 118 105 113 108 127 119 142 151 154 138 149 152 148 144 135 141 140 143 145 144 157 165 161 159 158 149 144 143 144 143 141 137 143 138 142 140 137 135 137 141 151 166 154 165 164 161 159 164 178 177 184 176 174 172 178 177 177 184 194 193 194 202 206 207 204 195 187 186 185 180 188 198 197 206 200 199 200 188 184 173 168 156 153 145 154 149 149 145 141 140 143 148 154 155 160 153 163 164 167 166 167 170 160 153 144 139 141 133 131 128 127 125 119 120 114 117 117 117 126 135 126 131 122 126 129 136 136 131 132 132 131 133 136 133 135 129 128 127 127 130 125 124 123 127 127 132 128 126 122 126 128 127 123 128 128 127 126 118 128 102 103 96 100 97 96 80 74 78 79 74 72 75 76 77 78 83 86 89 89 88 92 88 89 84 83 81 81 81 81 87 94 96 103 103 101 108 119 116 131 142 129 128 130 130 139 137 153 158 149 154 153 150 150 146 150 152 151 155 154
152 146 147 151 152 164 158 148 144 143 147 145 137 132 125 121 121 124 117 112 106 100 97 96 94 97 92 97 96 96 94 93 91 93 94 92 91 104 110 101 111 108 129 126 139 151 147 139 148 147 145 139 136 148 145 146 149 150 152 150 142 143 148 143 135 134 134 134 137 131 140 140 137 133 129 133 138 141 152 153 157 167 163 168 163 175 181 182 179 174 178 176 178 180 178 179 188 185 184 187 185 196 199 197 197 191 180 183 194 192 199 207 199 192 187 179 165 172 157 152 147 149 145 146 141 138 138 151 134 144 155 153 161 154 165 164 159 155 155 153 155 145 143 137 125 126 126 123 119 122 117 110 113 108 114 120 126 124 129 127 124 129 129 125 121 121 127 125 124 126 135 131 131 123 122 121 122 128 127 124 127 127 130 132 128 126 128 128 130 134 131 126 132 133 142 118 119 104 105 95 103 91 81 83 75 75 76 69 72 78 75 79 82 85 90 91 88 87 87 85 87 90 91 86 83 85 94 97 101 104 104 107 109 122 119 131 139 134 124 127 131 132 138 144 168 151 147 158 152 149 146 147 150 147 154 152
155 151 147 146 157 157 153 145 147 146 143 143 132 130 120 129 123 120 112 106 106 102 100 101 101 101 100 102 102 95 88 84 83 83 86 92 96 87 109 106 102 111 117 128 132 140 146 142 134 130 130 126 124 127 145 146 147 145 139 140 139 136 128 130 129 132 136 133 131 143 135 135 135 133 130 128 128 141 145 146 151 164 162 159 169 170 181 177 175 175 178 179 176 179 177 181 185 194 185 186 186 172 187 194 196 196 201 190 197 194 192 195 192 184 182 176 171 169 159 157 148 142 144 143 139 131 133 138 146 136 139 152 159 157 148 153 159 157 158 154 147 145 140 130 127 127 125 119 114 117 115 116 111 113 116 122 124 123 127 127 128 126 128 123 122 118 117 121 118 122 123 133 129 122 123 119 122 122 123 128 130 129 133 133 129 131 131 139 140 138 144 145 139 130 134 145 111 107 107 98 100 95 85 79 85 75 75 77 76 81 81 81 84 81 81 80 79 78 84 85 83 90 89 90 91 92 96 103 105 111 108 108 116 115 118 127 127 135 127 128 130 129 138 139 146 160 163 164 153 151 150 155 155 145 155 152
159 152 146 145 147 150 154 148 150 145 147 129 127 127 124 119 114 109 106 104 107 99 93 91 92 91 88 87 85 81 82 80 75 73 78 84 89 91 89 111 102 101 106 120 120 136 141 147 137 139 146 139 134 131 131 130 134 138 139 140 136 132 130 132 133 132 126 125 140 135 140 142 136 137 136 132 130 133 146 144 144 154 161 157 170 164 172 186 176 175 181 185 177 169 167 164 171 174 175 177 178 180 179 169 178 190 200 201 193 189 192 192 185 178 178 179 184 168 161 152 145 141 139 140 138 135 135 133 141 150 149 139 139 140 147 146 141 138 133 137 133 134 133 125 119 118 121 122 121 119 118 110 115 117 118 120 126 126 128 125 122 118 119 116 115 116 116 122 121 120 125 127 128 121 120 121 121 124 125 129 130 129 134 133 128 131 138 142 145 143 140 145 154 148 133 138 127 116 104 110 91 100 95 74 87 87 82 78 72 78 78 79 78 78 80 78 79 81 75 84 84 90 85 92 92 95 105 105 112 116 117 118 122 115 120 124 126 127 127 125 130 134 142 131 137 148 149 152 158 157 155 159 158 162 152 153
152 151 145 140 144 142 141 140 142 143 135 126 125 125 116 113 109 106 109 101 99 93 89 87 87 85 80 77 81 82 81 81 78 76 74 73 85 88 87 89 107 105 103 106 117 116 131 132 129 126 127 127 124 123 119 124 124 134 138 129 124 124 121 122 117 122 125 127 124 133 131 131 129 128 135 133 131 132 141 154 146 149 153 156 161 166 174 186 183 170 169 170 169 163 161 166 167 171 180 175 174 175 175 178 176 171 189 184 198 202 177 179 179 172 174 169 170 162 155 148 153 141 136 134 142 140 139 142 142 136 133 144 140 141 142 136 141 140 140 141 137 129 123 119 115 119 119 119 122 124 124 117 110 114 119 120 122 122 122 122 117 114 117 117 117 116 117 121 122 120 124 130 128 122 118 117 120 124 124 128 123 131 135 133 132 129 141 146 148 149 142 139 145 151 141 139 146 118 111 111 107 95 95 88 76 89 90 89 88 77 77 73 76 75 77 72 72 75 77 79 87 85 86 96 98 107 113 111 115 116 119 117 122 120 124 124 121 122 125 123 124 128 135 150 142 133 141 151 156 149 150 147 158 153 155 155
153 150 140 138 137 139 133 135 137 136 132 126 124 117 121 110 108 106 101 98 95 86 77 76 74 74 77 78 72 72 72 71 71 68 69 75 73 84 87 82 91 95 95 106 112 119 123 133 135 125 125 126 123 122 118 119 121 119 131 124 121 123 121 115 113 114 119 122 125 121 128 134 136 142 134 138 131 128 133 146 151 151 148 151 163 165 178 178 177 178 173 175 175 168 164 165 164 169 168 167 164 172 175 169 166 180 170 192 183 182 193 181 173 169 167 172 170 167 152 150 151 141 135 136 138 139 136 134 131 132 133 131 140 139 133 138 140 137 134 133 131 125 120 120 122 120 117 120 121 117 121 112 117 117 122 122 122 122 118 119 116 111 117 116 113 118 119 123 123 121 123 126 127 126 124 123 118 124 123 127 126 123 133 139 132 136 143 147 152 147 148 145 144 144 140 138 141 127 111 110 112 96 105 95 85 81 89 87 88 86 80 73 72 73 75 72 72 73 73 77 87 84 92 96 104 113 115 114 115 116 118 121 126 131 128 126 132 127 127 129 121 129 123 123 131 135 131 130 144 149 151 148 150 159 160 153
150 146 140 135 132 139 139 130 127 128 131 125 123 116 121 120 108 101 97 92 85 80 74 72 70 69 68 70 72 76 72 69 68 63 64 65 71 75 85 88 80 94 92 86 103 106 113 124 126 123 116 113 119 126 119 121 121 123 126 124 125 117 120 116 114 116 119 120 126 124 123 123 127 136 138 135 134 130 136 143 150 156 148 153 156 172 166 180 173 168 168 164 166 167 166 163 158 159 162 169 167 165 166 168 171 162 172 174 186 190 185 183 174 167 164 165 174 166 157 150 147 135 137 132 133 132 132 129 125 122 126 129 131 131 132 131 128 129 125 123 122 122 124 117 121 123 121 124 126 126 124 118 110 111 117 121 123 125 115 117 115 114 117 119 118 118 120 121 122 119 122 117 124 133 131 124 128 122 120 128 126 125 125 136 128 138 143 154 156 152 148 143 141 146 145 136 136 125 114 111 106 105 99 106 89 96 76 89 89 93 85 80 69 72 75 77 78 76 75 76 80 88 92 103 111 114 114 112 112 116 127 127 131 128 131 122 129 134 127 129 127 126 129 130 131 135 138 129 117 125 144 148 149 166 164 165
149 144 139 135 130 136 137 124 122 125 123 121 117 125 115 117 107 95 87 83 84 79 75 69 65 62 62 64 68 66 70 68 65 63 66 69 68 74 76 92 84 83 89 90 88 103 105 113 121 114 111 118 116 120 122 130 123 128 126 124 123 124 120 120 120 122 121 120 122 120 116 120 119 120 133 134 133 135 137 145 149 155 150 153 157 173 158 170 163 163 166 166 169 176 168 162 161 155 159 170 169 170 167 156 160 172 166 172 176 181 182 175 166 165 160 163 171 162 155 147 146 138 135 132 130 128 128 126 120 118 119 118 120 128 135 131 128 122 119 119 119 121 123 124 123 122 120 121 123 124 124 121 121 120 120 125 124 127 116 115 117 116 119 121 118 116 117 120 124 123 131 124 119 119 120 119 122 128 123 123 120 123 126 130 132 129 150 143 162 155 147 142 132 140 141 136 137 125 120 113 105 108 99 101 104 88 92 83 88 88 87 86 80 72 78 76 73 75 76 78 82 90 93 106 111 117 110 116 114 125 134 129 130 131 129 124 120 133 130 131 127 125 123 115 113 120 130 133 138 126 130 141 155 147 160 168
143 137 145 143 135 137 138 127 128 124 125 124 123 124 113 106 103 90 78 81 81 77 74 65 63 60 64 65 68 65 63 65 66 67 68 68 66 67 77 80 91 84 83 85 84 85 95 103 112 122 117 106 117 117 126 129 129 138 127 126 127 128 127 122 123 124 121 116 121 118 120 119 124 121 127 129 131 141 135 146 151 152 153 145 153 165 164 169 163 150 156 159 163 165 166 160 158 159 152 157 160 165 172 175 160 160 167 162 169 171 178 175 168 170 168 168 167 159 156 150 140 138 133 130 120 117 126 117 111 107 109 117 119 118 113 123 131 136 136 131 129 124 119 116 117 128 125 124 121 119 122 122 122 124 127 127 121 128 123 121 116 114 125 128 120 116 120 120 126 129 133 132 127 129 131 129 127 124 129 121 116 121 121 133 134 128 150 147 149 149 148 144 135 137 141 138 137 126 120 116 105 109 104 102 95 98 96 84 85 91 91 78 79 83 77 75 78 75 75 75 86 91 98 105 113 114 113 114 119 128 137 137 143 143 139 137 124 129 122 124 120 118 124 123 120 115 119 129 136 131 124 128 131 153 158 142
143 148 141 143 137 142 138 130 122 122 124 129 125 124 111 98 97 83 78 84 80 73 71 65 61 60 61 63 65 71 69 64 63 66 69 72 68 66 71 76 81 93 84 85 83 86 96 92 104 109 117 118 117 116 120 119 129 135 140 122 122 127 131 126 121 128 127 121 114 115 115 114 116 121 121 134 126 140 131 144 153 157 160 146 149 157 158 161 169 159 150 154 160 160 152 149 149 155 161 158 162 164 160 164 169 167 170 166 168 159 159 160 165 170 170 167 165 158 149 146 142 140 129 123 120 118 125 112 109 105 104 107 110 113 118 118 120 118 117 111 116 120 119 119 121 120 123 122 126 124 122 122 123 123 125 130 126 125 120 124 120 113 119 128 122 118 127 121 118 124 127 131 129 127 125 123 120 124 127 123 118 115 124 125 130 131 133 153 160 153 150 145 141 140 140 141 135 130 126 111 113 100 111 110 106 100 101 90 85 91 90 90 84 80 81 82 78 79 77 80 87 98 102 104 109 104 114 114 124 137 138 147 152 147 144 137 129 127 120 118 111 107 111 112 113 118 117 117 129 138 137 121 123 120 136 143
141 142 140 138 134 134 133 124 121 121 120 125 127 117 103 93 89 80 80 81 74 76 65 62 61 62 59 61 60 62 66 70 72 71 69 69 71 71 66 73 72 82 93 90 83 77 85 94 89 108 100 109 108 111 109 119 123 119 139 136 123 127 127 125 122 118 121 122 114 120 121 116 118 119 121 125 122 141 131 147 146 156 166 153 158 158 160 167 166 166 158 155 158 158 154 153 147 147 148 151 152 152 158 155 156 154 161 172 171 168 162 160 161 165 162 159 159 157 151 143 145 139 134 122 120 125 118 118 109 106 112 108 104 102 96 97 99 108 121 121 113 112 119 123 120 117 118 120 127 116 121 122 122 124 124 126 127 127 124 122 119 114 111 124 116 120 128 124 120 124 130 130 133 140 142 139 132 131 121 120 116 123 119 124 129 135 138 132 141 154 145 136 133 136 136 138 134 125 122 116 113 110 100 112 116 104 103 102 90 92 92 95 96 95 90 88 88 83 85 84 92 100 101 103 111 108 110 120 125 143 142 151 149 147 141 138 128 124 121 116 115 108 111 111 111 114 119 117 115 121 125 135 128 113 119 127
129 132 136 139 133 126 127 123 120 119 117 122 125 108 103 90 82 78 80 82 74 66 63 58 58 59 59 54 54 58 61 59 57 66 69 65 64 67 71 64 71 73 82 85 86 84 79 88 98 89 113 99 105 110 112 106 113 118 114 129 131 132 130 132 128 125 121 120 111 119 120 114 118 119 121 124 116 129 138 146 150 144 159 150 167 160 162 171 171 162 162 155 151 155 150 153 150 149 145 149 144 146 147 153 152 157 159 156 165 168 169 162 156 153 149 152 157 152 147 145 145 137 130 126 127 122 120 111 110 107 103 99 96 99 99 102 100 101 98 110 111 113 114 115 110 115 121 123 126 121 121 124 125 124 118 123 125 122 122 121 121 120 111 113 123 122 132 130 132 135 140 136 141 144 140 145 131 139 124 124 121 116 121 124 124 136 139 133 134 134 134 133 131 137 134 135 128 127 120 114 115 113 112 109 114 114 105 96 94 93 97 92 94 94 95 96 89 86 91 91 94 98 106 104 108 104 109 125 125 148 143 146 151 144 138 132 127 122 117 115 114 108 109 109 107 108 106 106 110 114 113 118 129 130 119 121
133 130 123 126 125 123 125 134 126 121 119 121 116 103 100 93 81 80 86 80 74 62 54 53 51 49 50 53 55 48 47 52 56 56 62 63 60 60 64 67 70 66 73 85 86 84 82 82 95 97 94 115 103 99 103 104 103 111 116 114 123 118 126 133 125 122 122 120 113 122 121 117 121 119 118 118 116 122 135 134 153 146 151 156 160 166 161 167 167 167 163 157 148 155 148 151 155 152 145 148 140 144 146 151 154 149 160 163 154 159 163 156 152 150 149 148 149 145 138 138 138 132 132 123 121 119 110 107 104 104 103 100 96 99 97 103 105 105 106 105 103 112 108 111 112 105 113 128 125 123 122 125 128 129 122 125 121 118 120 118 120 120 115 112 121 127 137 133 135 135 141 137 141 148 145 139 126 130 135 121 123 121 121 113 122 131 138 141 140 143 141 131 133 133 132 131 125 125 120 116 116 114 113 113 115 112 106 98 93 92 89 86 91 93 93 99 95 89 89 90 92 99 105 110 113 113 113 129 128 146 139 147 151 146 136 129 123 118 116 114 116 113 112 105 102 102 102 103 104 110 113 120 111 130 130 125
