28 30 33 35 33 33 32 27 26 28 29 30 29 29 26 24 24 18 18 13 9 10 13 15 18 25 29 31 35 36 34 32 29 28 29 29 28 24 24 24 26 26 26 27 27 25 26 28 31 33 32 33 36 36 36 38 38 36 36 34 32 33 32 34 
31 31 32 32 33 34 32 28 27 28 31 35 34 33 33 29 24 22 17 16 12 12 15 17 18 25 29 29 35 36 32 31 25 24 24 24 22 22 21 23 25 26 25 26 27 27 28 32 37 42 40 38 39 41 38 39 39 38 34 33 33 33 33 34 
37 33 32 35 36 32 31 29 28 29 32 38 39 36 36 34 28 26 22 16 12 7 10 15 16 22 28 30 33 32 28 26 21 20 21 19 19 19 19 20 24 26 24 25 29 29 33 35 41 42 43 43 45 45 42 42 43 42 39 35 35 35 35 34 
41 38 33 34 36 33 32 33 32 34 36 39 41 40 38 37 33 28 21 14 10 4 4 10 13 20 25 27 27 29 27 23 16 17 17 18 16 16 19 19 20 23 25 27 28 30 34 37 43 44 43 43 48 49 50 48 46 44 41 41 41 39 36 35 
40 37 36 34 37 38 36 37 39 42 43 41 42 42 39 38 33 29 21 12 10 4 3 7 10 16 22 25 22 22 24 20 16 15 14 13 11 12 17 20 19 19 22 24 26 27 34 40 44 45 44 43 48 52 56 53 50 52 49 47 46 42 38 33 
41 39 40 38 37 37 39 43 44 47 49 46 45 42 39 36 32 27 21 11 6 3 4 7 10 16 19 21 18 21 19 18 18 17 16 15 13 14 19 19 18 20 20 21 25 27 33 39 43 43 42 46 51 54 56 56 57 56 53 49 47 42 38 36 
40 41 43 41 40 41 42 45 46 48 47 44 41 38 35 32 30 23 17 9 4 3 6 9 12 16 18 18 17 18 20 19 19 16 16 14 14 15 17 19 18 21 18 19 25 28 31 38 46 44 46 47 53 57 59 57 60 56 55 51 46 41 40 40 
42 44 45 45 46 44 44 44 45 47 45 45 37 37 31 27 22 19 15 8 2 2 7 11 13 15 18 18 18 19 20 20 20 18 17 18 20 18 16 16 17 19 19 20 25 27 30 38 44 45 46 45 53 58 62 62 59 60 58 54 49 46 42 42 
43 45 45 48 50 48 45 47 49 47 46 43 37 34 31 24 19 17 13 7 3 1 6 10 15 17 21 22 20 17 17 17 18 19 19 19 21 20 19 19 20 19 20 22 27 28 31 37 44 49 47 47 52 57 63 63 61 60 60 57 51 49 49 47 
43 42 48 47 50 51 49 49 50 50 46 43 36 33 31 26 23 19 14 9 4 2 5 9 15 17 20 21 22 18 15 16 19 20 19 18 19 21 22 22 22 22 22 24 28 30 32 34 38 43 47 51 53 57 62 62 61 63 60 61 59 53 51 51 
39 40 46 49 50 48 51 51 53 53 48 45 38 34 32 28 25 22 14 10 7 4 5 10 12 20 20 20 22 20 18 16 17 20 21 21 20 23 24 22 22 22 23 30 33 31 31 30 36 40 46 51 55 57 60 62 59 59 62 61 61 54 51 49 
37 39 42 47 51 52 50 51 54 54 52 48 42 37 33 28 24 19 16 12 8 7 9 13 15 20 23 23 24 24 23 19 18 20 21 21 22 25 26 25 25 22 27 31 34 34 32 31 34 39 43 48 57 56 57 58 57 57 58 61 58 53 49 48 
43 43 44 47 50 52 50 50 53 49 54 53 46 39 35 29 25 20 17 16 13 11 15 17 19 22 25 29 30 31 26 23 24 24 22 24 24 26 27 26 26 25 29 31 34 35 35 33 34 37 41 44 52 58 58 57 59 56 55 51 48 46 45 45 
43 43 46 50 48 47 45 44 45 48 53 55 51 42 37 32 29 21 21 17 18 17 18 19 20 23 25 31 34 33 31 26 25 26 25 27 26 25 26 26 25 25 26 33 34 37 36 34 37 36 39 44 48 52 55 56 52 49 50 48 44 43 43 41 
41 42 46 50 49 46 42 40 44 45 50 53 52 48 41 35 32 23 20 19 17 18 19 20 21 22 25 29 32 33 33 30 25 25 22 22 24 25 24 26 25 27 29 32 31 33 34 35 35 37 37 40 48 48 50 51 49 46 43 42 40 36 33 37 
41 42 47 48 46 45 41 40 43 44 47 51 52 49 45 39 33 25 19 17 18 19 20 20 21 18 20 23 28 31 30 29 27 25 21 21 21 23 24 25 26 28 33 34 34 33 33 33 33 36 37 37 46 47 48 48 47 43 40 39 35 31 28 29 
38 41 44 45 47 44 40 41 43 43 45 48 48 48 44 41 33 26 21 19 18 20 21 21 21 19 20 21 25 30 28 30 26 25 21 22 19 21 23 24 26 28 34 35 35 33 33 33 33 32 33 38 44 44 44 45 41 38 36 32 31 29 25 26 
36 40 41 47 47 47 43 41 42 44 48 46 44 44 42 37 30 26 22 18 16 18 19 19 20 20 23 25 26 30 29 29 26 26 26 24 23 24 22 26 26 27 31 30 34 32 32 31 32 31 33 38 43 46 44 42 40 37 33 31 29 24 21 23 
37 37 38 41 46 46 47 47 48 47 49 48 45 40 37 34 30 27 21 16 15 13 17 19 22 25 27 29 30 30 29 31 30 28 28 26 26 24 23 25 26 27 29 28 30 30 29 28 31 30 29 37 41 47 45 41 38 35 31 29 26 23 19 21 
35 37 40 42 42 45 47 47 48 48 46 46 45 41 38 35 30 28 25 19 16 14 16 22 25 28 30 30 33 35 34 35 32 30 30 31 29 26 23 23 25 28 29 27 27 27 29 29 28 30 30 34 39 42 44 39 36 32 29 24 23 23 21 22 
31 35 38 40 41 44 45 47 47 46 44 44 44 41 39 38 34 28 26 21 19 18 19 24 27 35 37 39 40 38 39 38 38 33 33 33 33 30 27 25 29 31 28 28 31 30 28 31 29 32 31 35 36 40 40 37 32 28 24 21 22 21 22 23 
28 34 38 39 40 42 42 45 45 45 46 45 45 42 42 39 37 33 29 25 22 21 23 28 34 40 40 43 43 42 42 39 41 39 37 36 36 34 31 30 31 33 33 30 31 32 31 32 31 30 32 36 37 36 37 35 30 27 21 20 23 22 23 25 
32 35 38 40 40 40 41 45 44 43 44 42 46 44 45 43 37 34 32 30 28 28 28 32 37 45 44 46 47 44 46 44 44 41 41 42 39 35 37 32 34 36 36 33 30 29 28 30 30 29 29 31 33 33 31 29 28 25 22 25 25 22 22 23 
35 37 36 40 42 41 40 42 44 43 43 43 46 44 43 42 38 34 31 30 31 30 32 36 39 47 45 47 48 47 46 48 46 45 46 43 44 38 37 34 33 35 34 32 31 30 30 28 27 28 28 26 27 27 26 25 27 27 28 27 26 24 21 22 
37 39 37 39 41 41 38 38 39 39 41 43 46 45 43 40 36 33 28 29 30 32 33 36 42 45 46 46 45 43 46 46 45 44 44 44 44 40 37 33 35 34 29 29 29 26 25 23 23 24 25 24 24 25 24 26 29 29 30 30 30 28 24 23 
36 38 36 38 39 40 40 37 36 36 37 41 47 47 42 39 39 33 32 31 34 34 35 40 43 43 43 44 43 43 44 44 42 42 43 43 42 39 35 33 35 34 28 25 26 24 23 22 23 23 24 22 19 21 21 25 27 28 30 31 35 33 28 26 
36 38 34 36 36 36 34 33 34 34 38 41 45 46 44 38 39 35 34 37 36 36 37 44 46 45 43 44 44 43 42 40 38 40 42 43 41 39 35 33 34 30 29 29 28 27 26 24 24 22 20 18 16 16 20 22 24 27 30 32 34 36 33 28 
36 36 38 35 36 35 31 30 32 32 35 36 40 44 43 42 38 39 37 38 39 37 41 45 47 48 48 43 45 45 43 39 35 36 39 38 37 34 31 30 31 29 28 28 28 28 25 24 24 23 21 19 17 16 18 20 22 24 29 31 34 35 37 32 
37 37 38 35 34 32 29 26 27 31 34 36 38 41 45 42 39 41 40 40 40 42 45 48 50 48 49 48 45 41 41 37 38 38 37 37 35 31 31 31 32 32 31 29 30 29 26 26 24 24 20 20 19 19 19 19 21 24 28 32 35 36 37 36 
37 38 38 32 29 26 24 24 24 27 31 36 35 35 37 37 35 36 34 38 40 43 44 46 50 49 46 49 47 40 37 36 37 41 41 36 32 29 30 31 32 32 33 31 31 31 30 31 31 24 21 19 19 21 22 20 21 24 29 33 34 38 37 38 
37 36 35 30 27 23 21 20 19 22 26 33 32 31 33 31 31 33 33 34 38 43 44 42 44 43 46 47 44 40 35 34 34 35 35 32 29 29 29 30 29 29 30 30 30 32 33 36 35 28 23 20 19 19 19 22 26 28 30 31 32 36 38 38 
35 33 31 29 22 18 15 17 16 18 21 24 29 30 32 30 30 29 31 34 38 40 40 41 39 41 41 43 41 39 33 31 28 31 31 30 30 30 30 30 29 29 31 31 31 30 34 38 34 31 26 23 22 19 18 23 28 32 34 31 30 30 32 37 
33 31 30 26 20 15 13 14 15 16 19 20 25 26 29 31 30 29 29 32 38 41 40 38 37 36 38 40 38 36 33 29 26 24 26 27 29 30 31 30 29 32 33 35 32 30 33 34 33 30 28 27 22 23 22 25 28 35 35 29 27 26 28 30 
31 29 28 24 19 11 9 10 11 13 14 16 18 23 24 26 28 30 29 32 35 39 40 37 35 35 36 36 36 33 26 26 23 23 24 25 27 30 30 28 28 33 35 36 33 33 33 34 34 29 32 28 24 23 22 28 29 33 31 28 25 22 23 28 
30 27 23 20 15 10 9 7 10 8 9 12 13 15 18 24 25 27 30 35 34 36 36 30 30 29 30 32 31 26 24 19 18 17 19 20 28 32 30 27 28 31 35 39 36 33 32 33 35 32 31 27 27 23 25 30 31 30 28 27 23 22 24 27 
29 25 20 15 13 10 9 8 5 6 9 9 10 12 15 19 21 25 29 33 35 32 31 27 28 27 26 28 25 24 18 11 10 13 12 16 22 27 33 30 30 31 35 37 37 40 39 39 38 37 29 28 27 24 28 29 32 30 26 24 23 23 25 29 
25 22 18 16 13 12 10 9 4 2 5 9 11 11 11 15 18 25 27 30 32 31 29 24 24 23 21 24 24 20 17 11 11 10 12 12 22 27 31 32 29 30 33 38 39 44 41 43 42 37 34 30 28 27 27 29 31 29 26 24 26 28 28 30 
22 21 17 16 12 13 12 10 6 1 2 6 8 8 7 10 14 19 22 24 27 27 28 27 28 26 22 23 23 20 17 14 12 10 12 14 21 27 27 27 28 26 32 37 42 41 40 41 41 37 36 30 29 26 25 26 28 27 25 24 28 31 28 31 
20 21 18 14 14 12 13 12 7 2 2 3 5 5 4 3 6 12 17 19 24 26 29 28 30 26 24 24 23 19 17 16 14 14 16 16 20 23 26 25 23 23 28 35 41 41 39 38 40 37 36 31 29 27 24 27 28 28 24 24 27 32 30 30 
20 22 18 15 13 12 14 11 7 3 1 1 1 2 2 1 1 5 14 19 22 24 27 28 30 28 26 27 25 22 19 16 15 15 15 15 21 23 22 23 22 24 24 33 37 42 40 38 38 35 34 31 28 27 26 30 32 27 29 27 27 31 32 34 
20 21 21 18 14 13 12 10 9 5 3 1 1 2 2 3 1 3 10 17 22 22 23 26 29 28 27 25 23 23 21 21 20 20 17 19 22 23 23 21 21 23 25 28 35 43 43 41 38 35 34 28 26 27 29 31 33 28 25 25 27 31 34 34 
19 22 21 21 19 17 13 12 9 7 4 4 4 6 5 4 2 3 11 17 22 22 21 20 21 24 22 22 21 22 24 24 24 23 22 23 25 26 24 22 20 20 24 28 35 41 44 42 38 38 34 30 24 26 28 33 33 31 28 29 32 33 34 35 
18 21 24 25 24 21 19 13 11 12 10 7 6 7 7 6 5 6 10 17 20 21 20 20 18 19 20 19 20 22 23 24 26 25 27 27 28 29 27 23 20 20 24 28 35 40 43 43 39 39 32 28 23 26 27 28 29 31 32 33 33 32 33 38 
16 16 21 24 28 25 22 18 15 15 14 13 11 11 11 11 11 11 15 18 21 22 23 23 21 17 17 18 20 22 24 22 25 26 32 34 30 28 28 25 22 23 24 30 32 38 39 38 37 37 32 28 24 25 25 27 26 28 32 35 35 34 35 39 
18 17 18 24 27 26 25 19 18 19 20 17 16 16 18 19 20 19 18 21 23 23 24 25 22 19 19 19 20 20 22 21 24 28 31 31 30 31 27 25 22 21 26 29 34 37 38 36 33 34 30 26 24 24 26 25 25 27 34 39 37 39 40 41 
21 20 24 25 27 28 26 24 22 22 22 22 22 23 26 29 27 26 25 26 24 24 25 28 25 23 20 22 20 20 23 23 23 29 31 33 30 30 26 25 23 25 28 27 33 34 37 35 32 32 26 25 21 20 23 23 21 26 33 37 39 40 39 41 
24 25 26 26 29 31 30 27 25 24 25 26 26 29 34 33 32 31 33 31 29 28 26 28 26 28 26 23 25 23 24 26 25 29 32 36 33 32 27 27 28 27 29 29 30 31 31 33 30 27 23 20 14 14 17 19 21 26 28 34 34 36 37 41 
28 26 26 28 29 30 28 27 27 27 28 30 30 33 37 35 34 35 38 37 34 33 33 31 30 29 28 29 28 26 25 28 30 28 33 33 35 32 29 29 28 29 25 26 27 29 32 32 28 24 19 13 11 9 10 12 17 23 22 27 31 34 33 38 
29 29 29 30 30 26 27 30 30 29 28 29 32 37 39 39 35 35 38 41 40 37 37 34 33 30 30 30 29 27 26 29 28 27 27 29 34 33 28 28 30 26 25 25 25 28 30 29 24 20 14 9 7 6 6 9 12 17 21 24 24 25 30 32 
30 30 30 32 30 28 27 30 31 29 29 31 37 42 44 41 39 42 44 43 42 41 41 38 35 36 33 31 28 26 27 27 27 28 27 28 31 29 29 28 29 28 28 26 25 27 27 25 21 17 11 8 6 4 6 7 11 15 17 20 23 22 23 26 
30 31 29 32 31 30 26 26 30 28 32 34 39 43 43 42 45 47 47 47 45 46 45 43 43 41 37 36 34 29 29 27 25 26 27 28 30 31 28 28 29 30 30 31 29 28 26 25 19 14 11 10 8 8 9 10 13 16 17 19 18 20 21 21 
30 32 33 33 31 29 28 28 28 30 36 38 40 42 40 44 48 51 53 50 49 47 50 50 51 49 44 39 37 32 32 31 28 26 28 29 30 33 32 28 31 32 30 32 30 27 27 23 22 16 12 12 10 10 10 13 14 18 17 17 17 17 19 19 
29 32 34 33 31 29 28 31 33 35 40 40 40 44 41 42 48 57 56 52 52 51 54 54 55 55 55 51 45 43 36 33 31 30 31 33 36 35 33 31 30 31 30 30 30 28 27 26 22 18 15 13 14 14 13 15 17 18 19 20 18 17 19 17 
31 33 37 33 31 30 32 34 37 37 39 41 38 41 45 42 46 55 59 55 54 52 56 57 54 58 58 57 52 46 43 39 39 37 32 34 37 38 37 32 30 30 28 28 29 33 30 29 23 19 18 16 14 15 15 17 17 19 20 21 19 18 18 18 
33 34 35 33 31 28 31 37 43 41 38 39 38 41 46 47 47 53 56 56 55 51 50 53 54 57 60 57 52 50 47 47 45 43 41 42 44 41 38 35 33 30 29 28 31 32 31 29 24 20 18 20 17 15 15 16 15 18 22 23 23 21 20 22 
34 34 36 34 32 29 29 35 41 43 39 38 37 42 46 48 46 53 55 54 52 48 46 50 56 58 60 57 56 52 48 47 46 50 45 43 45 44 36 38 34 30 31 29 33 34 32 29 27 23 23 20 20 20 20 21 19 21 22 23 23 22 22 25 
31 31 31 31 30 30 29 34 37 39 38 37 37 40 45 48 48 50 53 51 51 47 47 48 50 56 60 59 56 54 51 51 51 51 48 46 45 46 39 39 33 29 27 29 33 33 33 29 29 28 25 24 23 22 25 24 22 22 18 21 21 23 28 31 
29 28 27 29 27 26 27 34 36 37 36 35 35 38 42 45 50 52 51 50 50 47 45 50 50 53 57 55 55 56 52 49 52 50 48 44 42 43 39 38 32 30 26 27 30 28 28 27 28 31 27 25 23 24 28 27 24 22 20 21 22 26 30 33 
26 24 23 23 22 23 26 29 32 33 34 35 34 38 41 46 46 53 51 50 51 52 51 52 52 54 56 56 55 54 49 47 48 48 44 44 40 39 38 38 32 29 26 26 28 28 26 25 25 30 28 27 28 28 29 27 24 21 20 22 22 26 30 30 
27 23 23 22 20 20 25 28 30 30 32 37 37 40 41 46 47 47 50 50 53 52 53 52 52 52 54 50 50 50 47 44 42 43 42 39 37 35 37 35 33 28 26 26 29 25 22 23 25 27 27 30 31 30 28 27 23 22 23 24 25 30 32 29 
28 25 23 20 19 20 22 25 27 27 31 36 39 39 41 40 47 47 47 48 51 52 51 52 51 52 53 52 51 47 46 41 38 36 35 33 32 31 31 31 32 28 26 26 29 25 24 25 25 26 30 33 35 34 31 31 28 23 24 25 28 31 32 30 
29 25 23 21 20 19 18 19 21 24 28 31 34 37 38 38 43 45 43 47 51 48 47 47 46 46 48 51 46 46 43 40 35 33 29 27 28 27 29 32 30 27 26 25 26 27 24 23 25 27 33 35 39 39 37 32 31 31 25 26 29 30 33 31 
29 25 22 19 20 18 15 17 21 23 26 30 32 34 34 34 41 42 45 45 48 48 45 45 46 45 45 43 43 42 40 36 31 30 28 24 23 23 24 25 25 23 24 27 26 26 26 27 29 31 36 39 44 41 37 38 36 29 29 26 29 31 30 29 
30 23 19 17 19 16 15 17 20 22 24 27 30 29 30 34 36 37 40 41 41 44 45 45 46 44 40 39 36 36 37 32 28 29 25 23 22 19 19 21 23 24 23 24 24 24 27 29 28 35 37 43 42 42 40 37 39 32 30 25 27 27 30 32 
